# .PCD v0.7 - Point Cloud Data file format
VERSION 0.7
FIELDS x y z intensity
SIZE 4 4 4 4
TYPE F F F F
COUNT 1 1 1 1
WIDTH 1129
HEIGHT 1
VIEWPOINT 0 0 0 1 0 0 0
POINTS 1129
DATA ascii
6.704968 0.14781398 -0.40947583 12264.143
6.7019873 0.14202416 -0.39577928 12264.144
6.7120042 0.13736537 -0.38403332 12264.144
5.7378783 -0.53197956 0.70765668 12264.145
5.5688739 -0.53100532 0.70385641 12264.145
5.5578885 -0.53740877 0.71051401 12264.145
5.5619063 -0.54490155 0.71909964 12264.145
5.5469193 -0.55025584 0.72481871 12264.145
5.5599394 -0.55879039 0.73433876 12264.145
5.5629592 -0.56728315 0.74286848 12264.145
5.5579748 -0.57373428 0.75051963 12264.145
5.592001 -0.58440441 0.76290452 12264.145
5.6530342 -0.59825641 0.77909112 12264.145
5.7200708 -0.61315453 0.79621458 12264.145
5.7340927 -0.62268603 0.80567712 12264.145
5.7491126 -0.6312176 0.81519556 12264.145
5.7761388 -0.64189816 0.82758605 12264.145
5.836174 -0.65675002 0.84371686 12264.145
5.9312181 -0.67482841 0.86464125 12264.145
5.7731895 -0.66417229 0.84936142 12264.145
5.7692065 -0.67162037 0.85695505 12264.145
5.7522178 -0.67692089 0.86167741 12264.145
5.8392625 -0.6950112 0.88260829 12264.145
5.7552533 -0.6918574 0.87785423 12264.145
5.7312641 -0.69711167 0.88158387 12264.145
5.7042727 -0.70131528 0.88437414 12264.145
5.7192945 -0.71084529 0.8938359 12264.145
5.4616342 -0.86886436 1.02432 12264.145
5.4576483 -0.87520069 1.0299736 12264.145
5.4256501 -0.87718832 1.0288876 12264.145
5.3786888 -0.89602256 1.0418831 12264.145
5.653892 -1.1906993 0.7524727 12264.147
5.6328697 -1.1802366 0.74407089 12264.147
5.6208491 -1.1707588 0.73560512 12264.147
5.6268363 -1.165418 0.72989327 12264.147
5.6038122 -1.153903 0.72055137 12264.147
5.6118016 -1.1496143 0.7157796 12264.147
5.5877767 -1.1381009 0.70643848 12264.147
5.592762 -1.1317064 0.69978571 12264.147
5.5967498 -1.1263684 0.69407552 12264.147
5.5997357 -1.1200336 0.68842274 12264.147
5.6047206 -1.1136391 0.68177003 12264.147
5.6097069 -1.1073014 0.67611563 12264.147
5.6066904 -1.0999204 0.66952604 12264.147
5.6116767 -1.0935826 0.66387171 12264.147
5.6616802 -1.0964468 0.6626628 12264.147
5.6906743 -1.094237 0.65975761 12264.147
5.7206702 -1.0930241 0.65679479 12264.147
5.7446613 -1.08971 0.65195346 12264.147
5.761652 -1.0854644 0.64817286 12264.147
5.8236575 -1.089366 0.64789605 12264.147
6.4097977 -1.1645874 0.68216586 12264.147
6.5600338 0.86646038 -0.24535577 12264.149
5.7623625 0.87707579 0.18264474 12264.152
5.7443805 0.86412662 0.18092416 12264.152
5.7604885 0.7883293 0.17560567 12264.152
5.7585058 0.77634561 0.1749272 12264.152
5.7855172 0.76839852 0.17445199 12264.152
5.8085284 0.76044559 0.17398001 12264.152
6.7337651 -0.44073379 -0.50400758 12264.158
6.7387605 -0.43225089 -0.49451602 12264.158
6.7117534 -0.42099035 -0.48183343 12264.158
6.7297487 -0.41248813 -0.47235239 12264.158
6.7457452 -0.40498728 -0.46292639 12264.158
6.7427406 -0.39563122 -0.45137492 12264.158
6.7447348 -0.38621107 -0.44082588 12264.158
6.7457314 -0.37779078 -0.43033272 12264.158
5.4866457 0.32249939 0.75237739 12264.159
5.5476508 0.32955697 0.77075255 12264.159
5.4926515 0.33030373 0.77384889 12264.159
5.4956551 0.33373502 0.78405708 12264.159
5.494657 0.33721703 0.79327011 12264.159
5.5126615 0.34149897 0.80651802 12264.159
5.5996666 0.35036525 0.82897907 12264.159
5.6126699 0.35469645 0.8412326 12264.159
5.6696749 0.3617481 0.85961097 12264.159
5.69068 0.36597782 0.87385488 12264.159
5.6796832 0.3685033 0.88202095 12264.159
5.6876855 0.37288374 0.89328015 12264.159
5.7186904 0.37807003 0.908571 12264.159
5.6906924 0.37968519 0.91469735 12264.159
5.6766968 0.38120782 0.92280912 12264.159
5.683701 0.38458839 0.93401253 12264.159
5.6717038 0.38711238 0.94217938 12264.159
5.6657071 0.38958862 0.95133978 12264.159
5.6717114 0.3929677 0.96254396 12264.159
5.5927119 0.39102367 0.95949924 12264.159
5.6623278 -0.037183974 0.93513072 12264.163
5.6773233 -0.038705118 0.92701811 12264.163
5.6873188 -0.04017701 0.91791117 12264.163
5.6953111 -0.040596809 0.90786403 12264.163
5.6863012 -0.040928498 0.89583397 12264.163
5.6902957 -0.042352624 0.88573349 12264.163
5.6952896 -0.043775264 0.87563211 12264.163
5.6902819 -0.045099411 0.86354214 12264.163
5.6922755 -0.046526507 0.85344326 12264.163
5.6932688 -0.047898412 0.84234673 12264.163
5.6672573 -0.048085317 0.82733524 12264.163
5.6192436 -0.049133256 0.80928963 12264.163
5.5412269 -0.049999032 0.78727466 12264.163
5.5172162 -0.050239641 0.77325994 12264.163
5.5212097 -0.051663768 0.76315939 12264.163
5.5192018 -0.052041739 0.75212204 12264.163
5.5261955 -0.053461414 0.74201912 12264.163
5.5261874 -0.053836413 0.7309801 12264.163
6.72118 0.017345026 -0.38684782 12264.164
6.7071652 0.020057766 -0.39970225 12264.164
6.7121501 0.022855377 -0.41357043 12264.164
6.7111344 0.025644081 -0.42743379 12264.164
6.7071195 0.028428335 -0.4412947 12264.164
6.704103 0.032155793 -0.45410135 12264.164
6.7110868 0.035013042 -0.46896955 12264.164
6.7295427 0.39439234 -0.48264131 12264.168
6.6955686 0.38362125 -0.47020143 12264.168
6.6965909 0.37495551 -0.45867491 12264.168
6.6536179 0.36411437 -0.44522938 12264.168
6.665638 0.35652006 -0.43465349 12264.168
6.6676588 0.34791246 -0.42412618 12264.168
6.6806793 0.33937794 -0.41460615 12264.168
6.6896992 0.33177915 -0.40402782 12264.168
6.6827226 0.32210317 -0.39255151 12264.168
6.6917443 0.31350601 -0.38202986 12264.168
6.6287732 0.3015801 -0.36762643 12264.168
6.6237946 0.29296216 -0.35709348 12264.168
5.7585979 -1.0294323 0.68440926 12264.17
5.6965928 -1.0273576 0.68157756 12264.17
5.6906075 -1.0355803 0.68512261 12264.17
5.6175985 -1.0314684 0.68141478 12264.17
5.5986075 -1.0366019 0.6831435 12264.17
5.601624 -1.0458096 0.68662459 12264.17
5.598639 -1.0540279 0.69016725 12264.17
5.5986567 -1.0632968 0.6946491 12264.17
5.5956717 -1.0715151 0.69819176 12264.17
5.593688 -1.0807302 0.70167691 12264.17
5.5877004 -1.087898 0.70428014 12264.17
5.5957208 -1.09821 0.70969737 12264.17
5.6027393 -1.1084669 0.71411693 12264.17
5.5987535 -1.11663 0.71666193 12264.17
5.6027708 -1.1258929 0.72114056 12264.17
5.6277957 -1.1392316 0.72737241 12264.17
5.6358147 -1.149487 0.73179114 12264.17
5.6058187 -1.1525267 0.73164541 12264.17
5.5958304 -1.158702 0.7343086 12264.17
5.5698347 -1.1617357 0.73415965 12264.17
5.6118679 -1.1792128 0.74314612 12264.17
5.7695417 -1.2081606 0.2866312 12264.173
5.7795272 -1.2008737 0.28202787 12264.173
5.785512 -1.192651 0.27848285 12264.173
5.7824945 -1.1824449 0.27505842 12264.173
5.7824755 -1.1721777 0.27063319 12264.173
5.7934623 -1.1649458 0.26702744 12264.173
5.7844415 -1.1536936 0.26266617 12264.173
5.7784224 -1.1424934 0.25930083 12264.173
5.7854071 -1.1342692 0.25575498 12264.173
5.7863903 -1.1249989 0.25127229 12264.173
5.7823706 -1.1137958 0.24790534 12264.173
5.7823515 -1.1035285 0.24348012 12264.173
5.8173456 -1.100368 0.24162506 12264.173
5.8003216 -1.0870742 0.23638521 12264.173
5.8003039 -1.0768635 0.23295836 12264.173
5.7812791 -1.0626309 0.22877519 12264.173
5.8322773 -1.0624419 0.22673717 12264.173
5.8432622 -1.0542117 0.22318809 12264.173
5.872251 -1.0480083 0.22050951 12264.173
5.9233994 0.77519906 0.040499173 12264.174
5.89539 0.78208959 0.041916914 12264.174
5.8633795 0.78997248 0.043394558 12264.174
5.8243718 0.79584831 0.044764519 12264.174
5.5546131 0.87357295 0.48611921 12264.178
5.556623 0.8647604 0.48261237 12264.178
5.5566349 0.85494649 0.47905049 12264.178
5.5666447 0.84708756 0.47659221 12264.178
5.5586591 0.83526504 0.47292343 12264.178
5.5606694 0.82645249 0.46941656 12264.178
5.5676804 0.81759065 0.46690407 12264.178
5.5646925 0.80683059 0.46228954 12264.178
5.5817008 0.79998046 0.45988229 12264.178
5.5707154 0.78815341 0.45621592 12264.178
5.5687265 0.77839321 0.45165724 12264.178
5.582736 0.77054018 0.44919574 12264.178
5.5707498 0.75876838 0.4445318 12264.178
5.5907578 0.75192267 0.44212213 12264.178
5.5757732 0.73914796 0.43740395 12264.178
5.5817833 0.73034137 0.43389383 12264.178
5.7037787 0.73622948 0.43912724 12264.178
6.7234468 -0.21462376 -0.48214915 12264.184
6.7014494 -0.20846106 -0.46775717 12264.184
6.7034516 -0.20314781 -0.45543805 12264.184
6.7074561 -0.19888666 -0.44217879 12264.184
6.7274594 -0.19454508 -0.4299309 12264.184
6.7114615 -0.18837349 -0.41554376 12264.184
6.7474651 -0.18489321 -0.40536225 12264.184
5.6920104 0.073750749 0.74608725 12264.185
5.5690079 0.072853148 0.74113804 12264.185
5.5140109 0.072544828 0.74517608 12264.185
5.5070186 0.072966099 0.75522232 12264.185
5.5010252 0.073445544 0.76426941 12264.185
5.511034 0.074720442 0.77735376 12264.185
5.5360451 0.074962527 0.79136771 12264.185
5.6180611 0.076775968 0.81443447 12264.185
5.6470718 0.077965714 0.82950026 12264.185
5.6880851 0.078061543 0.84649646 12264.185
5.6800928 0.078481339 0.85654354 12264.185
5.6670995 0.07895039 0.86559623 12264.185
5.6501064 0.07847178 0.87359715 12264.185
5.6401138 0.07888861 0.88364583 12264.185
5.6341214 0.079311378 0.89369124 12264.185
5.6561322 0.079549015 0.90770763 12264.185
5.6611419 0.079874769 0.91974097 12264.185
5.6411481 0.07944838 0.92674589 12264.185
5.6151543 0.079013079 0.9337557 12264.185
5.6577387 -0.3245582 0.91581774 12264.188
5.6967359 -0.32521537 0.91073757 12264.188
5.7027264 -0.32369798 0.90180385 12264.188
5.6997123 -0.32102561 0.88993889 12264.188
5.7117047 -0.32049775 0.88094366 12264.188
5.715693 -0.31792831 0.87106985 12264.188
5.7096806 -0.31625876 0.85915065 12264.188
5.699666 -0.31354007 0.84629297 12264.188
5.6956539 -0.31092584 0.83542728 12264.188
5.6916399 -0.30825496 0.8235631 12264.188
5.6806269 -0.30559444 0.8117047 12264.188
5.609601 -0.29951772 0.79107916 12264.188
5.558578 -0.29452312 0.77237761 12264.188
5.5385623 -0.29082087 0.75958472 12264.188
5.5395494 -0.28819925 0.74871492 12264.188
5.5355387 -0.28658336 0.73779255 12264.188
5.5345254 -0.28396469 0.72692436 12264.188
5.5625181 -0.28252804 0.71996969 12264.188
6.6989799 0.15520377 -0.38100594 12264.188
6.6859593 0.1628533 -0.39257944 12264.188
6.6829395 0.16951925 -0.40421766 12264.188
6.6829195 0.17624633 -0.41685671 12264.188
6.6988983 0.18399556 -0.42945206 12264.188
6.6988764 0.19172104 -0.44203445 12264.188
6.7008557 0.19939281 -0.45362005 12264.188
6.7058353 0.20612732 -0.46626318 12264.188
6.7268138 0.21388395 -0.47886252 12264.188
6.7417912 0.22168837 -0.49245545 12264.188
6.7420878 0.7144987 -0.45747095 12264.193
6.7151141 0.70191115 -0.4481453 12264.193
6.6711464 0.68618995 -0.43697912 12264.193
6.6481748 0.6725533 -0.42671496 12264.193
6.6301985 0.66103423 -0.41833827 12264.193
6.613225 0.64846158 -0.40902069 12264.193
6.6382422 0.64011484 -0.40250555 12264.193
6.6572614 0.63076085 -0.3960422 12264.193
6.6752806 0.62140536 -0.38957807 12264.193
6.6723032 0.6109069 -0.38115686 12264.193
6.6743264 0.59947419 -0.3737947 12264.193
6.6893463 0.59005755 -0.36632976 12264.193
6.6223798 0.57330382 -0.35520166 12264.193
6.6264038 0.56181735 -0.34684277 12264.193
6.6024289 0.54929101 -0.3385179 12264.193
5.8283505 -1.055306 0.3303116 12264.194
5.8343687 -1.0664494 0.3326785 12264.194
5.8293848 -1.0765541 0.33411261 12264.194
5.7263689 -1.0684365 0.32965729 12264.194
5.7553968 -1.0846511 0.33371904 12264.194
5.7414079 -1.0917172 0.33433202 12264.194
5.73142 -1.0997759 0.33488512 12264.194
5.7364397 -1.1119192 0.33719617 12264.194
5.7424574 -1.123006 0.33856472 12264.194
5.7334719 -1.1321181 0.34005871 12264.194
5.7364898 -1.1432093 0.34142968 12264.194
5.7355046 -1.1523097 0.3429172 12264.194
5.7345209 -1.1624084 0.34434807 12264.194
5.7315359 -1.1724534 0.34478217 12264.194
5.7325516 -1.1825494 0.3462114 12264.194
5.7365694 -1.1936389 0.34758154 12264.194
5.7485909 -1.2067702 0.34983027 12264.194
6.0600204 -1.0684749 -0.1023367 12264.197
6.054966 -1.0323702 -0.1032876 12264.197
6.0489492 -1.0203984 -0.10260268 12264.197
6.1119456 -1.0191931 -0.10459371 12264.198
6.1189289 -1.0081438 -0.10497437 12264.198
5.7166634 0.73813576 0.30000013 12264.199
5.7026544 0.74687386 0.30451506 12264.199
5.6486521 0.74967551 0.30672553 12264.199
5.6366439 0.75741822 0.3111822 12264.199
5.6406317 0.76817971 0.31579596 12264.199
5.6366224 0.77693266 0.32030278 12264.199
5.6446109 0.78764349 0.3259117 12264.199
5.6336017 0.79638594 0.33042422 12264.199
5.6285934 0.80508071 0.33593026 12264.199
5.6265841 0.81383657 0.3404355 12264.199
5.6285739 0.82354009 0.34599259 12264.199
5.6405611 0.83525527 0.35165492 12264.199
5.6305532 0.84300089 0.35610998 12264.199
5.6225452 0.85074949 0.3605634 12264.199
5.6185365 0.85944563 0.36606866 12264.199
5.6105289 0.86719424 0.37052208 12264.199
5.5995212 0.87493837 0.37497795 12264.199
5.4259243 0.8726424 0.86979795 12264.202
5.4259319 0.86488193 0.86535102 12264.202
5.4219394 0.85717219 0.85990888 12264.202
5.4349451 0.85137117 0.85656315 12264.202
5.4289536 0.84266013 0.85106599 12264.202
5.4489594 0.83781117 0.84876966 12264.202
5.4369683 0.8281495 0.84222233 12264.202
5.4339747 0.82044125 0.83677936 12264.202
5.4479809 0.81464171 0.83343285 12264.202
5.4419894 0.80593061 0.8279357 12264.202
5.4439964 0.79822981 0.82248873 12264.202
5.4590025 0.79243177 0.81914139 12264.202
5.4510102 0.78377438 0.8126474 12264.202
5.4440174 0.77511847 0.80615264 12264.202
5.4620247 0.76926816 0.8038013 12264.202
5.4560323 0.7606138 0.79730576 12264.202
5.4600396 0.75285929 0.79285556 12264.202
5.458046 0.74520922 0.78641343 12264.202
5.460053 0.73750842 0.7809664 12264.202
5.4680595 0.73075825 0.77656972 12264.202
5.4630671 0.72210532 0.77007329 12264.202
5.4760747 0.71530586 0.76667094 12264.202
5.4630828 0.70569938 0.75912595 12264.202
5.4730887 0.6989522 0.7547276 12264.202
5.4680967 0.69029927 0.74823123 12264.202
5.6630888 0.70648456 0.7680065 12264.202
6.7276678 -0.3275229 -0.41644549 12264.204
6.7376685 -0.33481511 -0.42888767 12264.204
6.7126684 -0.34027585 -0.43919143 12264.204
6.7326698 -0.34849498 -0.45269677 12264.204
6.7416697 -0.35573199 -0.46613654 12264.204
6.7296696 -0.36211517 -0.47750583 12264.204
6.7276692 -0.3684268 -0.48988166 12264.204
6.717206 -0.052383151 -0.48194879 12264.208
6.7222161 -0.051172353 -0.46786198 12264.208
6.7222271 -0.050967366 -0.45382783 12264.208
6.7202368 -0.049766954 -0.43973538 12264.208
6.7362466 -0.049481556 -0.42671251 12264.208
6.7082582 -0.048433077 -0.41060227 12264.208
6.716269 -0.048216216 -0.39657456 12264.208
6.2413373 -0.15306768 0.73272198 12264.209
6.116333 -0.15208481 0.72988451 12264.209
5.5363331 -0.1537741 0.72730154 12264.209
5.5253434 -0.15629725 0.73618263 12264.209
5.5293579 -0.15990989 0.74699163 12264.209
5.5193696 -0.16248822 0.75687033 12264.209
5.5343838 -0.16519947 0.76972395 12264.209
5.577405 -0.17009264 0.78643519 12264.209
5.6344261 -0.17407997 0.80518854 12264.209
5.6854477 -0.17901795 0.82289171 12264.209
5.7044635 -0.18272164 0.83568543 12264.209
5.7064786 -0.18639392 0.84749448 12264.209
5.6974893 -0.18891409 0.85637391 12264.209
5.6915011 -0.19148651 0.86624938 12264.209
5.696516 -0.19515434 0.87805605 12264.209
5.689527 -0.19767156 0.88693386 12264.209
5.6935425 -0.20134084 0.8987413 12264.209
5.6835546 -0.20486093 0.90756488 12264.209
5.6675649 -0.20733482 0.91545165 12264.209
5.6715784 -0.21094745 0.92626065 12264.209
5.6871996 -0.64682567 0.8944937 12264.213
5.7231965 -0.64654559 0.89047098 12264.213
5.7541904 -0.64521784 0.88551062 12264.213
5.8081908 -0.64607936 0.88441193 12264.213
5.7561622 -0.63615096 0.86699295 12264.213
5.7471428 -0.62949389 0.85535955 12264.213
5.9131756 -0.64313328 0.87046289 12264.213
5.7921252 -0.62469679 0.84257072 12264.213
5.7400975 -0.61482501 0.82615024 12264.213
5.7260776 -0.6081754 0.81452084 12264.213
5.724061 -0.60256296 0.80382353 12264.213
5.6580281 -0.59060186 0.78553081 12264.213
5.6029983 -0.57967949 0.76817095 12264.213
5.5649734 -0.57089871 0.75367922 12264.213
5.5539546 -0.56430131 0.74304575 12264.213
5.557941 -0.55979174 0.73428369 12264.213
5.5529251 -0.55424047 0.7245872 12264.213
5.5569105 -0.54967427 0.7148267 12264.213
5.5648975 -0.54521543 0.7070598 12264.213
5.6749082 -0.5502708 0.71068108 12264.213
6.6347728 0.31614649 -0.34176472 12264.214
6.6277504 0.32663006 -0.35017782 12264.214
6.6427255 0.33820134 -0.35955051 12264.214
6.6457024 0.34875643 -0.3689701 12264.214
6.702673 0.36155847 -0.38131523 12264.214
6.6856518 0.37197056 -0.38872188 12264.214
6.6806312 0.38145867 -0.39719331 12264.214
6.6746087 0.39194375 -0.40560725 12264.214
6.6755862 0.40243921 -0.41402689 12264.214
6.6745615 0.41398674 -0.42338657 12264.214
6.6745391 0.42448071 -0.43180537 12264.214
6.6755166 0.43497616 -0.44022498 12264.214
6.6914921 0.44654894 -0.44959843 12264.214
6.6874695 0.45703697 -0.45801401 12264.214
6.7014446 0.46860677 -0.46738583 12264.214
6.7164197 0.48017806 -0.47675848 12264.214
5.6771617 0.75171983 0.52340293 12264.02
5.633213 0.75479805 0.52514297 12264.02
5.5241132 0.75104111 0.52212781 12264.02
5.5523314 0.76191121 0.53058636 12264.02
5.5565143 0.77125722 0.53808033 12264.02
5.5506587 0.77871454 0.54365724 12264.02
5.5468006 0.78618419 0.55023915 12264.02
5.5399232 0.79266536 0.55586898 12264.02
5.5400863 0.801045 0.56240767 12264.02
5.5241909 0.80666995 0.56706595 12264.02
5.5313749 0.81589359 0.57357132 12264.02
5.5285168 0.82334113 0.58015651 12264.02
5.5216393 0.8298223 0.58578634 12264.02
5.5227799 0.83718175 0.59238458 12264.02
5.5109057 0.84371674 0.59699965 12264.02
5.5140662 0.85208666 0.60454661 12264.02
5.5222278 0.86029011 0.61111158 12264.02
5.5183473 0.86676151 0.61774969 12264.02
5.5174904 0.87410867 0.62334305 12264.02
5.5861959 0.58860272 0.93506062 12264.022
5.6661859 0.58817667 0.94125724 12264.022
5.6890779 0.58245385 0.93762034 12264.022
5.6639085 0.57334507 0.92606384 12264.022
5.6808019 0.56775445 0.92240733 12264.022
5.6876812 0.56121689 0.91577905 12264.022
5.7085752 0.55548185 0.91113722 12264.022
5.7214513 0.54886848 0.905527 12264.022
5.7493615 0.54409003 0.90284872 12264.022
5.7161741 0.53410298 0.89032382 12264.022
5.7130384 0.52667493 0.88172215 12264.022
5.7228928 0.51912951 0.87615842 12264.022
5.7097406 0.51081085 0.86558342 12264.022
5.7066026 0.50343913 0.85798019 12264.022
5.6774364 0.49436215 0.84541219 12264.022
5.6432495 0.48439714 0.83288407 12264.022
5.5940709 0.47464988 0.8183099 12264.022
5.5759201 0.46644139 0.80771852 12264.022
5.5067081 0.45496938 0.79019606 12264.022
5.4995503 0.44663128 0.78163755 12264.022
5.5054297 0.44011578 0.775006 12264.022
5.5083127 0.43361002 0.76736617 12264.022
5.5041766 0.426204 0.75876129 12264.022
5.5430841 0.42118326 0.75611907 12264.022
6.7474136 -0.28557572 -0.34136489 12264.023
6.7273545 -0.28980377 -0.35318634 12264.023
6.7252927 -0.2944847 -0.36594713 12264.023
6.7262082 -0.30022985 -0.37864184 12264.023
6.699173 -0.30330554 -0.39054251 12264.023
6.6841121 -0.30764374 -0.40234753 12264.023
6.7080255 -0.31400821 -0.41696364 12264.023
6.7484226 -0.029409165 -0.45296991 12264.028
6.6663585 -0.028472632 -0.4331581 12264.028
6.6952844 -0.030488158 -0.42196792 12264.028
6.6962113 -0.031717911 -0.40787438 12264.028
6.7131143 -0.034354623 -0.39467046 12264.028
6.7120414 -0.035540327 -0.38058347 12264.028
6.7149677 -0.036814135 -0.36648333 12264.028
6.7448697 -0.03979354 -0.35423523 12264.028
5.5830021 -0.30562243 0.78118038 12264.029
5.5439572 -0.30647805 0.78615707 12264.029
5.5418286 -0.31091788 0.79541755 12264.029
5.5386977 -0.31527933 0.80567318 12264.029
5.5475402 -0.32084697 0.81702286 12264.029
5.5524077 -0.32538468 0.82730466 12264.029
5.5612502 -0.33095235 0.83865434 12264.029
5.6150026 -0.34016776 0.85631084 12264.029
5.670752 -0.34937093 0.87497234 12264.029
5.7065578 -0.35630617 0.89046043 12264.029
5.7024074 -0.36170012 0.89977062 12264.029
5.7212453 -0.36743173 0.91215152 12264.029
5.7270885 -0.3729333 0.9234913 12264.029
5.7568746 -0.38079089 0.93801761 12264.029
5.7816849 -0.38754016 0.9524712 12264.029
5.7585897 -0.39068821 0.95861131 12264.029
5.7275229 -0.39277455 0.96267211 12264.029
5.7104244 -0.39599842 0.96983033 12264.029
5.7022986 -0.4003624 0.9780727 12264.029
5.6702299 -0.40237039 0.98312867 12264.029
5.6907802 -0.91818696 1.0112706 12264.032
5.7237558 -0.92008102 1.0084399 12264.032
5.7119565 -0.91239458 0.99796629 12264.032
5.7270322 -0.91006851 0.99185622 12264.032
5.7311559 -0.90556008 0.98459911 12264.032
5.7123828 -0.89677763 0.97304785 12264.032
5.7185082 -0.89236963 0.96479893 12264.032
5.732584 -0.89002144 0.95868552 12264.032
5.725759 -0.88338703 0.949283 12264.032
5.7099848 -0.87467062 0.93774158 12264.032
5.7310562 -0.87242043 0.93264961 12264.032
5.7262087 -0.86682826 0.92330986 12264.032
5.7074361 -0.85804582 0.91175866 12264.032
5.6348915 -0.83954096 0.89153653 12264.032
5.6101198 -0.83062637 0.8799656 12264.032
5.5734239 -0.81862187 0.86519128 12264.032
5.5566478 -0.80982715 0.85464501 12264.032
5.5518227 -0.80323684 0.845249 12264.032
5.5549488 -0.79876268 0.83699018 12264.032
5.554121 -0.79220408 0.82860571 12264.032
5.5443187 -0.78450543 0.81913716 12264.032
5.5813179 -0.78554577 0.81526482 12264.032
5.7840662 -0.79894465 0.81743544 12264.032
6.6985798 0.53541285 -0.36975494 12264.034
6.7058783 0.54789686 -0.37645394 12264.034
6.7041574 0.55958098 -0.3831262 12264.034
6.6974134 0.57043338 -0.38876018 12264.034
6.6716495 0.58076251 -0.3934018 12264.034
6.6759486 0.59331262 -0.40011063 12264.034
6.6692047 0.60416502 -0.40574461 12264.034
6.6945233 0.61719435 -0.41343927 12264.034
6.6908007 0.62897891 -0.41911972 12264.034
6.6760564 0.64006382 -0.42378151 12264.034
6.6853547 0.65250385 -0.43047398 12264.034
6.6896319 0.66405576 -0.43712658 12264.034
6.6718664 0.67420864 -0.44174194 12264.034
6.6761642 0.68681508 -0.4474524 12264.034
6.6784415 0.69841111 -0.45411155 12264.034
6.6626759 0.70851988 -0.45872036 12264.034
6.6579514 0.72038275 -0.46340564 12264.034
6.6622267 0.73199105 -0.46905982 12264.034
6.671525 0.74443102 -0.47575226 12264.034
6.6838446 0.75780302 -0.48249117 12264.034
6.6590343 0.76617014 -0.48601854 12264.034
6.6382675 0.77644539 -0.48964533 12264.034
5.8822484 0.76223928 -0.026646899 12264.038
5.9181046 0.75551361 -0.025192799 12264.038
5.9358959 0.74624622 -0.022630513 12264.038
6.2841392 0.54904157 0.7393977 12264.044
6.1501865 0.55321676 0.7428956 12264.044
5.5020714 0.55417669 0.73551148 12264.044
5.4921684 0.55983847 0.74318463 12264.044
5.4962602 0.56524813 0.75190198 12264.044
5.4793386 0.57000965 0.75861007 12264.044
5.4954672 0.57726401 0.76925117 12264.044
5.4845448 0.58189327 0.77597886 12264.044
5.5437398 0.59253109 0.79252642 12264.044
5.5939384 0.60331082 0.80804592 12264.044
5.5980282 0.60877681 0.81776178 12264.044
5.6321907 0.6178 0.8313446 12264.044
5.6863642 0.62754977 0.84793204 12264.045
5.7004938 0.63484818 0.85856652 12264.045
5.680553 0.63862127 0.8643226 12264.045
5.6776485 0.6441288 0.87201869 12264.045
5.7057905 0.65228593 0.88563806 12264.045
5.6868272 0.65503883 0.89145374 12264.045
5.6839228 0.66054642 0.89914978 12264.045
5.6739974 0.66521001 0.90687919 12264.045
5.6550364 0.66790646 0.91169637 12264.045
5.656127 0.67343861 0.92140239 12264.045
5.6652374 0.6797927 0.93107837 12264.045
5.6062098 0.67903966 0.92999905 12264.045
5.6093016 0.68447137 0.93871325 12264.045
5.6469107 0.21627082 0.96520519 12264.048
5.6398458 0.21181272 0.9544248 12264.048
5.6807752 0.20774607 0.95173281 12264.048
5.6997185 0.20393874 0.94497508 12264.048
5.6786413 0.19862187 0.93120986 12264.048
5.6815701 0.19405615 0.92245907 12264.048
5.7035122 0.19018272 0.9157111 12264.048
5.7004466 0.18563651 0.90494388 12264.048
5.7133932 0.181905 0.89716804 12264.048
5.6883168 0.17667626 0.88338965 12264.048
5.7012653 0.17288841 0.87461543 12264.048
5.6691928 0.16775753 0.85981566 12264.048
5.6161318 0.16292025 0.84195179 12264.048
5.5590739 0.15811473 0.82307643 12264.048
5.5540309 0.15461075 0.81224632 12264.048
5.5489659 0.15010859 0.80147249 12264.048
5.5369043 0.1457043 0.78967732 12264.048
5.5058522 0.14160588 0.77582294 12264.048
5.512804 0.13789389 0.76603061 12264.048
5.5647306 0.13358495 0.76337481 12264.048
5.7046595 0.12989715 0.77087903 12264.048
6.6924043 -0.15065607 -0.35109216 12264.049
6.713407 -0.15296178 -0.36594316 12264.049
6.7254348 -0.15407105 -0.38087997 12264.049
6.733439 -0.15603404 -0.39477518 12264.049
6.7224684 -0.15652402 -0.4077906 12264.049
6.7204976 -0.15726858 -0.42177489 12264.049
6.7425246 -0.15865445 -0.43767732 12264.049
6.7135396 0.1543808 -0.47643089 12264.053
6.710381 0.14919013 -0.46312377 12264.053
6.7012019 0.14313346 -0.44978008 12264.053
6.7080646 0.13866438 -0.43749481 12264.053
6.706883 0.13243151 -0.4241249 12264.053
6.6947269 0.12743911 -0.41084728 12264.053
6.690546 0.12127231 -0.39748719 12264.053
6.7084084 0.11650457 -0.38616428 12264.053
6.6982288 0.11046995 -0.37282383 12264.053
5.992259 -0.65627891 0.81782335 12264.055
5.5735483 -0.64090693 0.80107903 12264.055
5.5544324 -0.64519757 0.80629015 12264.055
5.5502439 -0.65275687 0.81271768 12264.055
5.5420785 -0.65922982 0.81907576 12264.055
5.5578341 -0.66905701 0.82867664 12264.055
5.5596418 -0.67669207 0.83612227 12264.055
5.5415254 -0.68100482 0.84133667 12264.055
5.5522842 -0.6907782 0.84992266 12264.055
5.577014 -0.70174545 0.86060774 12264.055
5.6057186 -0.71374267 0.87236065 12264.055
5.664341 -0.72916996 0.88837433 12264.055
5.6900458 -0.74110103 0.90011734 12264.055
5.7486453 -0.75752652 0.91618735 12264.055
5.7424798 -0.76404351 0.92255199 12264.055
5.745265 -0.77269882 0.93005717 12264.055
5.728126 -0.77803177 0.93533111 12264.055
5.7249594 -0.78461486 0.94170558 12264.055
5.7137966 -0.79107809 0.94705546 12264.055
5.7185817 -0.79977739 0.95456713 12264.055
5.715415 -0.80636054 0.96094167 12264.055
5.7182002 -0.81501585 0.96844679 12264.055
5.7239852 -0.82373726 0.9759618 12264.055
5.7158437 -0.8292684 0.98126525 12264.055
5.7186289 -0.83792371 0.98877037 12264.055
5.7134647 -0.84451914 0.99413991 12264.055
5.7172503 -0.85319644 1.0016483 12264.055
5.6842122 -0.85440952 1.0026511 12264.055
5.7228675 -0.86856705 1.0155476 12264.055
5.6041884 -1.210833 0.74415433 12264.058
5.6023788 -1.2031416 0.73770714 12264.058
5.6065207 -1.1975224 0.73239064 12264.058
5.618639 -1.1930776 0.72715658 12264.058
5.6078553 -1.1842459 0.71962517 12264.058
5.6070452 -1.1765765 0.71318126 12264.058
5.6151867 -1.1710454 0.70787787 12264.058
5.6203289 -1.1654482 0.7025646 12264.058
5.6105676 -1.1556405 0.6949802 12264.058
5.6157331 -1.1491015 0.68861222 12264.058
5.6318264 -1.1456865 0.68444598 12264.058
5.6320162 -1.1380391 0.6780054 12264.058
5.6282086 -1.1303599 0.67055321 12264.058
5.6333728 -1.1237645 0.66518366 12264.058
5.6335626 -1.1161171 0.65874302 12264.058
5.6377292 -1.1095561 0.65237182 12264.058
5.6399159 -1.1018964 0.64693618 12264.058
5.6381083 -1.0942613 0.63949054 12264.058
5.6343207 -1.0855277 0.63298059 12264.058
5.6444621 -1.0800406 0.6276837 12264.058
5.6436734 -1.071373 0.62118345 12264.058
5.6408644 -1.0636595 0.61473304 12264.058
5.6520271 -1.0571964 0.60938317 12264.058
5.7169223 -1.0626208 0.60982144 12264.058
5.8196683 -1.0747024 0.6137172 12264.058
5.8019552 -1.0627785 0.60499561 12264.058
5.7812428 -1.0507884 0.59626418 12264.058
5.7695041 -1.0399386 0.58861703 12264.058
6.1524882 0.74940377 -0.16559508 12264.06
6.0685296 0.75230861 -0.16492844 12264.06
5.6268659 0.87804806 0.23873211 12264.062
5.635644 0.86781174 0.23832592 12264.062
5.6434445 0.85859567 0.23786019 12264.062
5.6201434 0.84501529 0.23657572 12264.062
5.6159048 0.8340109 0.23518476 12264.062
5.6387434 0.82651705 0.23565407 12264.062
5.6445246 0.81629056 0.23423964 12264.062
5.6392837 0.80536455 0.23384379 12264.062
5.657104 0.79692632 0.2333546 12264.062
5.6879411 0.78925627 0.23385015 12264.062
5.6977429 0.77993983 0.23239256 12264.062
5.69348 0.76799357 0.23205628 12264.062
5.6912403 0.75694513 0.23067187 12264.062
5.71106 0.74846286 0.2301892 12264.062
5.741899 0.74073648 0.22968638 12264.062
6.7362843 -0.43891469 -0.41787171 12264.068
6.7244625 -0.42899087 -0.40643659 12264.068
6.7326155 -0.42056212 -0.39587799 12264.068
6.740746 -0.41313154 -0.38526312 12264.068
6.7079477 -0.40163434 -0.37195632 12264.068
6.7240787 -0.3944363 -0.36231363 12264.068
6.7252316 -0.38579702 -0.35077959 12264.068
5.5236855 0.26586187 0.74781549 12264.069
5.5047183 0.26872739 0.75562793 12264.069
5.5027652 0.27232924 0.76543665 12264.069
5.513804 0.27575737 0.7772848 12264.069
5.4998336 0.27856907 0.78611207 12264.069
5.5168939 0.28286323 0.79792368 12264.069
5.6049805 0.28920752 0.82078183 12264.069
5.6490235 0.29318854 0.83767402 12264.069
5.7001076 0.29906806 0.85547501 12264.069
5.7151437 0.30246443 0.86833471 12264.069
5.70717 0.30520028 0.87818003 12264.069
5.7062159 0.30878013 0.88799208 12264.069
5.7022414 0.31142783 0.89785057 12264.069
5.7092814 0.31494412 0.90968555 12264.069
5.6973128 0.31765544 0.917521 12264.069
5.7093496 0.32111788 0.93037087 12264.069
5.697381 0.3238292 0.93820626 12264.069
5.6824126 0.32660657 0.94603175 12264.069
5.6364179 0.32778886 0.94887614 12264.069
5.6602869 -0.082960308 0.97610515 12264.073
5.6772761 -0.084783584 0.96822989 12264.073
5.6872721 -0.086565323 0.95833486 12264.073
5.688292 -0.087150641 0.94835401 12264.073
5.6942887 -0.08884427 0.93844587 12264.073
5.6893144 -0.089410082 0.92644852 12264.073
5.6953111 -0.09110371 0.91654038 12264.073
5.7063069 -0.092907481 0.90664864 12264.073
5.7033296 -0.093461014 0.89565629 12264.073
5.7033539 -0.094136961 0.8836754 12264.073
5.6763911 -0.094387144 0.86861068 12264.073
5.6194668 -0.093203641 0.84939766 12264.073
5.5605421 -0.091976069 0.83017808 12264.073
5.5276051 -0.091152243 0.81403905 12264.073
5.5256276 -0.091727801 0.80304998 12264.073
5.5246501 -0.092325397 0.79206419 12264.073
5.5296493 -0.094053328 0.78115433 12264.073
5.5296717 -0.094672948 0.77017182 12264.073
6.0073028 -0.11439541 0.78627992 12264.073
6.0433083 -0.11558272 0.77940917 12264.073
6.7062078 -0.023849249 -0.35321036 12264.074
6.7103243 -0.020733295 -0.36740005 12264.074
6.70644 -0.017384784 -0.38061762 12264.074
6.7155552 -0.014378963 -0.39479092 12264.074
6.6866755 -0.010423427 -0.40709201 12264.074
6.6747913 -0.0068423608 -0.41933736 12264.074
6.6899047 -0.0039687078 -0.43349099 12264.074
6.7231135 0.40460783 -0.49453527 12264.078
6.7098727 0.39553213 -0.48303264 12264.078
6.6986313 0.38641238 -0.47152355 12264.078
6.6944103 0.37813658 -0.46004769 12264.078
6.6911688 0.36878425 -0.44951075 12264.078
6.6939483 0.36029792 -0.43901038 12264.078
6.6927285 0.35189974 -0.42852309 12264.078
6.7035055 0.34323719 -0.4179965 12264.078
6.6992869 0.33490506 -0.4075191 12264.078
6.6930442 0.32567516 -0.39599356 12264.078
6.7358637 0.31813508 -0.38846976 12264.078
6.652544 0.30683395 -0.37297806 12264.078
6.6403027 0.29773623 -0.36147219 12264.078
6.6310601 0.28857243 -0.34995648 12264.078
5.8769069 -1.0523175 0.69570303 12264.079
5.7452464 -1.0369406 0.6855529 12264.08
5.7261162 -1.0424546 0.68682665 12264.08
5.6811047 -1.0424616 0.68673533 12264.08
5.6450496 -1.0447195 0.68578768 12264.08
5.6189651 -1.0480831 0.68692589 12264.08
5.6247096 -1.0589135 0.69255656 12264.08
5.6085782 -1.0644937 0.69384009 12264.08
5.6133251 -1.0753583 0.6984691 12264.08
5.6250682 -1.0863209 0.7041195 12264.08
5.6109123 -1.092887 0.70646429 12264.08
5.6117063 -1.1017237 0.70996922 12264.08
5.6134777 -1.1115804 0.71353376 12264.08
5.6152472 -1.1213808 0.71809667 12264.08
5.6001158 -1.126983 0.71938348 12264.08
5.6048846 -1.1368495 0.72395623 12264.08
5.6116309 -1.1477582 0.7285918 12264.08
5.6114473 -1.1555747 0.73203719 12264.08
5.6142187 -1.1654534 0.73560494 12264.08
5.6120133 -1.174224 0.7391001 12264.08
5.6008811 -1.1799142 0.74040002 12264.08
5.6036506 -1.1897367 0.74496621 12264.08
5.6024475 -1.1985856 0.74746615 12264.08
5.6102152 -1.2085183 0.75204879 12264.08
5.8629336 -1.2037023 0.27954033 12264.083
5.8614144 -1.183091 0.27136326 12264.083
5.855144 -1.1515024 0.26055393 12264.083
5.8673463 -1.1429522 0.25709161 12264.083
5.8576212 -1.1309228 0.25338835 12264.083
5.8528948 -1.1190037 0.24970149 12264.083
5.8571219 -1.109279 0.24615668 12264.083
5.8583493 -1.0994884 0.24260202 12264.083
5.8665752 -1.089852 0.23907031 12264.083
5.8678026 -1.0800612 0.23551567 12264.083
5.8630767 -1.0681421 0.23182878 12264.083
5.9011593 -1.0650991 0.22973152 12264.083
5.9332886 -1.0599276 0.22750202 12264.083
5.9713721 -1.0568846 0.22540475 12264.083
5.8684487 0.7444436 0.096523263 12264.084
5.8025074 0.74795008 0.097192675 12264.084
5.7957249 0.75825495 0.099602245 12264.084
5.7869453 0.76854753 0.10100685 12264.084
5.7502546 0.83011967 0.11248216 12264.084
5.7554913 0.84115845 0.11487481 12264.084
5.7667484 0.85306311 0.11723087 12264.084
5.7770061 0.86498988 0.11958366 12264.084
5.7642026 0.87442875 0.12202981 12264.084
5.5258064 0.87803113 0.55402881 12264.088
5.5236154 0.86886632 0.55053502 12264.088
5.5354629 0.86144584 0.54797304 12264.088
5.5302286 0.8503508 0.54458195 12264.088
5.5370555 0.84204227 0.54205984 12264.088
5.5398631 0.83276737 0.5385825 12264.088
5.5316539 0.82268029 0.53412688 12264.088
5.5374589 0.81339556 0.53165776 12264.088
5.5503063 0.80595303 0.52909905 12264.088
5.5400767 0.79485548 0.52369475 12264.088
5.5448823 0.78559285 0.52122235 12264.088
5.5487123 0.77729404 0.51769203 12264.088
5.5444794 0.76612067 0.51330578 12264.088
5.5493088 0.7577998 0.5097788 12264.088
5.6393228 0.75803894 0.513955 12264.088
5.6732054 0.7522428 0.51334947 12264.088
6.7413654 -0.55986267 -0.33992454 12264.089
6.7471871 -0.56959802 -0.35038096 12264.089
6.7458067 -0.58966774 -0.36928332 12264.089
6.74545 -0.60881776 -0.38923705 12264.089
6.7483854 -0.2560474 -0.43918175 12264.094
6.690496 -0.24776682 -0.42173818 12264.094
6.6785812 -0.24172303 -0.40808114 12264.094
6.684618 -0.23807208 -0.39425254 12264.094
6.7096782 -0.23401049 -0.38341311 12264.094
6.7187166 -0.23048197 -0.3705731 12264.094
6.7197762 -0.22572272 -0.35681716 12264.094
5.5355153 0.032857645 0.75998384 12264.095
5.5204992 0.033751354 0.76991874 12264.095
5.5254536 0.033262663 0.78097391 12264.095
5.5274282 0.033894561 0.79296142 12264.095
5.5204096 0.034612045 0.80292255 12264.095
5.5623446 0.03358997 0.81909108 12264.095
5.6372814 0.033177104 0.8413021 12264.095
5.6722398 0.033307396 0.85739148 12264.095
5.6961813 0.032625489 0.87250262 12264.095
5.6971588 0.033223081 0.88348836 12264.095
5.698112 0.032878835 0.89552885 12264.095
5.6920929 0.033574294 0.90549326 12264.095
5.6860518 0.033271585 0.91551399 12264.095
5.694026 0.033771303 0.92752117 12264.095
5.706974 0.033219051 0.94059938 12264.095
5.6869402 0.033112083 0.94857728 12264.095
5.6759248 0.033861343 0.95752692 12264.095
5.6339269 0.035011843 0.96138287 12264.095
5.677722 -0.37911606 0.98984462 12264.098
5.6847854 -0.37783721 0.97977096 12264.098
5.7078156 -0.37774 0.97280127 12264.098
5.7138772 -0.3763828 0.96372271 12264.098
5.7399068 -0.37635162 0.95676279 12264.098
5.7439709 -0.37500671 0.94667929 12264.098
5.7191162 -0.37025377 0.93233824 12264.098
5.7361727 -0.36908251 0.92429411 12264.098
5.7212691 -0.36648989 0.91109675 12264.098
5.7123847 -0.36297491 0.89886129 12264.098
5.6825333 -0.35816815 0.8835054 12264.098
5.6267414 -0.35101765 0.863958 12264.098
5.574924 -0.34489712 0.84547853 12264.098
5.5430732 -0.34004629 0.83011603 12264.098
5.5431604 -0.3376151 0.8199631 12264.098
5.5273013 -0.33300409 0.80664992 12264.098
5.5413589 -0.33176675 0.79859608 12264.098
5.5604143 -0.33063957 0.79055858 12264.098
6.6361914 0.11491803 -0.33614227 12264.099
6.6986299 0.12999846 -0.36390889 12264.099
6.7048283 0.13723204 -0.37532189 12264.099
6.7250495 0.1450427 -0.38874206 12264.099
6.7162271 0.15166485 -0.39914957 12264.099
6.7044301 0.15929492 -0.41062158 12264.099
6.70363 0.16668268 -0.42205754 12264.099
6.6948318 0.17424667 -0.43351975 12264.099
6.7010522 0.18247841 -0.44498903 12264.099
6.7412705 0.18979222 -0.459342 12264.099
6.7154751 0.19778697 -0.46986154 12264.099
6.619278 0.7783128 -0.48177665 12264.103
6.6541257 0.77183443 -0.47633222 12264.103
6.6669087 0.76295882 -0.46879426 12264.103
6.6596522 0.75252748 -0.46120939 12264.103
6.6654148 0.74280792 -0.45363814 12264.103
6.6521115 0.73062503 -0.44396356 12264.103
6.6588759 0.72082716 -0.43738741 12264.103
6.6636386 0.71112961 -0.42981943 12264.103
6.6753998 0.70127785 -0.42222852 12264.103
6.6761632 0.69166845 -0.41467366 12264.103
6.6568637 0.67956138 -0.40601718 12264.103
6.6756468 0.67049736 -0.39945799 12264.104
6.7014289 0.66127908 -0.39287582 12264.104
6.6841283 0.64912802 -0.38421276 12264.104
6.6788697 0.63870883 -0.37562293 12264.104
6.695631 0.62869066 -0.36901399 12264.104
5.8154831 -1.0328834 0.34091932 12264.104
5.8510714 -1.0515308 0.34404707 12264.104
5.8179688 -1.0557947 0.34422019 12264.104
5.782866 -1.0600146 0.34438676 12264.104
5.7895961 -1.0720905 0.34608337 12264.104
5.8052778 -1.0863047 0.34892046 12264.104
5.7931032 -1.0940257 0.34933126 12264.104
5.808785 -1.1082399 0.35216835 12264.104
5.7876348 -1.1147645 0.35249338 12264.104
5.7913656 -1.1267742 0.35418013 12264.104
5.7990956 -1.1388721 0.35588002 12264.104
5.786921 -1.1465932 0.35629082 12264.104
5.7886748 -1.1575608 0.35791478 12264.104
5.8113098 -1.1739255 0.36088738 12264.104
5.7951589 -1.1805602 0.36122879 12264.104
5.7929354 -1.1904415 0.36278331 12264.104
5.6504755 0.74380893 0.37255448 12264.109
5.5854874 0.7453534 0.37433809 12264.109
5.595695 0.75545275 0.37979865 12264.109
5.6169415 0.76736253 0.38618118 12264.109
5.6161294 0.77670604 0.39166191 12264.109
5.6123195 0.78605932 0.39613441 12264.109
5.6024671 0.79354841 0.40069976 12264.109
5.5906372 0.8020798 0.4052023 12264.109
5.6028419 0.81219143 0.41166782 12264.109
5.5949893 0.81963652 0.41623974 12264.109
5.5991974 0.82986808 0.42168063 12264.109
5.5973635 0.83823538 0.42721435 12264.109
5.5945311 0.84656852 0.43174642 12264.109
5.5917196 0.85595608 0.4372206 12264.109
5.5828667 0.86342317 0.44178924 12264.109
5.5870528 0.87265658 0.4472864 12264.109
5.5224557 0.77572858 0.88831598 12264.112
5.5373249 0.7692402 0.88570762 12264.112
5.5311632 0.76099271 0.8791492 12264.112
5.541038 0.75450176 0.87452757 12264.112
5.5408726 0.74617845 0.86898726 12264.112
5.5206742 0.73613036 0.86049873 12264.112
5.6266174 0.73302251 0.86489624 12264.112
5.6665411 0.7291469 0.86519629 12264.112
5.6613569 0.71987921 0.85869741 12264.112
5.7123199 0.71781397 0.85991937 12264.112
5.691124 0.70773154 0.85042906 12264.112
5.6829405 0.69852996 0.84392041 12264.112
5.6587248 0.68745911 0.83347815 12264.112
5.6305084 0.67653275 0.82402116 12264.112
5.5972748 0.66460568 0.81260729 12264.112
5.5410085 0.65101993 0.7982353 12264.112
5.4907594 0.63841289 0.78582346 12264.112
5.486599 0.63006502 0.77827322 12264.112
5.4904552 0.6226517 0.77268982 12264.113
5.4772749 0.61350393 0.76516628 12264.113
5.4961448 0.60687107 0.7615726 12264.113
5.4849887 0.59862107 0.75300097 12264.113
5.4908442 0.59116375 0.74742413 12264.113
5.4756665 0.58200371 0.73889565 12264.113
5.5265875 0.57788575 0.73923171 12264.113
6.075006 0.54588532 0.74315608 12264.113
6.1489186 0.54131705 0.74456596 12264.113
6.6809721 -0.35019204 -0.34085947 12264.114
6.7178164 -0.35983738 -0.3552641 12264.114
6.7267075 -0.36675692 -0.36787629 12264.114
6.7425771 -0.37488517 -0.38140768 12264.114
6.7424703 -0.38160646 -0.39404938 12264.114
6.7313862 -0.38703093 -0.40578502 12264.114
6.7432547 -0.39501473 -0.41833109 12264.114
6.7431479 -0.40173605 -0.43097281 12264.114
6.7320642 -0.40716052 -0.44270849 12264.114
6.6228933 0.38438588 -0.34119657 12263.919
6.6349583 0.39530763 -0.35120431 12263.919
6.6310229 0.40538606 -0.35913798 12263.919
6.6300988 0.41643324 -0.36708179 12263.919
6.7091913 0.43167862 -0.38139579 12263.919
6.6752477 0.44005892 -0.38719124 12263.919
6.6943274 0.45190334 -0.39622876 12263.919
6.6864028 0.46302316 -0.40413815 12263.919
6.6684642 0.47224212 -0.41100764 12263.919
6.6895385 0.48407051 -0.42105499 12263.919
6.686614 0.49513847 -0.42898893 12263.919
6.6726847 0.5053159 -0.43587348 12263.919
6.6847649 0.51723289 -0.44487655 12263.919
6.6878405 0.52823865 -0.45284006 12263.919
6.6999202 0.54015571 -0.46184316 12263.919
6.6919856 0.55027556 -0.46975717 12263.919
6.7080655 0.56215107 -0.47877997 12263.919
6.0764356 0.83322275 -0.15342337 12263.923
6.1484199 0.83046675 -0.15178688 12263.923
6.0704622 -0.98163402 0.019088807 12263.925
6.0613484 -0.99153066 0.017086683 12263.925
6.0312734 -0.99821436 0.016201768 12263.925
5.9962139 -1.0028416 0.014350761 12263.925
5.9959602 -1.0258261 0.011244012 12263.925
6.0257716 -1.0431267 0.0090175346 12263.925
6.0220222 -1.1100396 -0.0022786229 12263.925
6.0288768 -1.1231019 -0.004373386 12263.925
5.6952038 0.77705002 0.73619014 12263.93
5.5159812 0.76297313 0.72299665 12263.93
5.4840188 0.76529086 0.72616327 12263.93
5.4851203 0.7712425 0.73418599 12263.93
5.4872365 0.77817905 0.74320847 12263.93
5.4903431 0.78511465 0.75022602 12263.93
5.486445 0.79111814 0.75827342 12263.93
5.4725118 0.79523963 0.76336074 12263.93
5.4675984 0.80025828 0.77040845 12263.93
5.4827394 0.80905515 0.7803762 12263.93
5.4888401 0.814955 0.78837436 12263.93
5.4558825 0.81727833 0.79254591 12263.93
5.4669986 0.82412153 0.80152404 12263.93
5.4690952 0.83006757 0.80854195 12263.93
5.4551668 0.83418435 0.81462926 12263.93
5.4582677 0.84011525 0.82264221 12263.93
5.4563646 0.84610271 0.82967979 12263.93
5.4534507 0.85110068 0.83671755 12263.93
5.4535522 0.8570627 0.84474522 12263.93
5.4476233 0.8610965 0.85079318 12263.93
5.4497242 0.86703783 0.85881102 12263.93
5.4387956 0.87112343 0.8648836 12263.93
5.4509115 0.87795633 0.87385684 12263.93
5.6036057 0.42093968 0.9599694 12263.933
5.6746054 0.4191893 0.96261543 12263.933
5.6855183 0.41410843 0.95553821 12263.933
5.6773973 0.40723881 0.94554532 12263.933
5.7133493 0.40387973 0.94235438 12263.933
5.7012239 0.39705628 0.93138111 12263.933
5.7021279 0.39208847 0.92235321 12263.933
5.6980171 0.3861773 0.91234523 12263.933
5.7019153 0.38017377 0.90429789 12263.933
5.7078195 0.37515414 0.89524531 12263.933
5.7017088 0.36926368 0.88524723 12263.933
5.7026024 0.36329597 0.87621462 12263.933
5.6724534 0.35567334 0.86232537 12263.933
5.6543336 0.34991676 0.85038638 12263.933
5.5971608 0.34158832 0.83362532 12263.933
5.5329785 0.33334184 0.81489879 12263.933
5.4968405 0.32678139 0.80104369 12263.933
5.501749 0.32176742 0.79299605 12263.933
5.489634 0.3159439 0.78202748 12263.933
5.4965377 0.31091389 0.77297002 12263.933
5.4864268 0.30506492 0.76299161 12263.933
5.5513868 0.30139568 0.76165789 12263.933
6.7373805 -0.13268907 -0.37318262 12263.934
6.7132931 -0.13538362 -0.38507822 12263.934
6.7152038 -0.1373385 -0.39909703 12263.934
6.7001104 -0.14012171 -0.4120369 12263.934
6.6860266 -0.14191535 -0.424977 12263.934
6.6799326 -0.1447919 -0.43796113 12263.934
6.6898327 -0.14782967 -0.45202392 12263.934
6.7317367 0.14084102 -0.47087315 12263.938
6.6707869 0.13738941 -0.45259205 12263.938
6.6628137 0.13340691 -0.4385716 12263.938
6.6678352 0.12929428 -0.42561507 12263.938
6.6828556 0.12507793 -0.41270775 12263.938
6.6968722 0.12087665 -0.40079543 12263.938
6.6988983 0.11679044 -0.38682416 12263.938
6.7109251 0.11360984 -0.37489742 12263.938
6.0699778 -0.41300884 0.75477773 12263.939
5.9859734 -0.41313761 0.75518626 12263.939
5.9359598 -0.41563293 0.75841826 12263.939
5.8529654 -0.41477215 0.75882655 12263.939
5.8069515 -0.41730896 0.76203883 12263.939
5.7189479 -0.4163869 0.7604717 12263.939
5.5899639 -0.41101643 0.75412506 12263.939
5.5509548 -0.41363057 0.75830281 12263.939
5.5559301 -0.42072892 0.76824552 12263.939
5.5639057 -0.42785838 0.77817345 12263.939
5.5608826 -0.43386444 0.78616017 12263.939
5.5508652 -0.43879324 0.79318595 12263.939
5.5508361 -0.44583508 0.80215323 12263.939
5.5938029 -0.4563508 0.81689489 12263.939
5.6567569 -0.46908325 0.83352894 12263.939
5.7067218 -0.48068088 0.85023153 12263.939
5.7246809 -0.48991862 0.86110091 12263.939
5.7456546 -0.49819225 0.87296015 12263.939
5.7606239 -0.50639892 0.88384897 12263.939
5.8195677 -0.52008981 0.90049797 12263.939
5.9764953 -0.54286695 0.93162739 12263.939
5.7265468 -0.52313912 0.9039368 12263.939
5.7595091 -0.53354645 0.91772771 12263.939
5.8714414 -0.55282891 0.94309258 12263.939
5.7544522 -0.54656887 0.93369156 12263.939
5.7214375 -0.54924053 0.93683988 12263.939
5.7104106 -0.55515891 0.94386595 12263.939
5.7033825 -0.56111878 0.95087236 12263.939
5.6748219 -1.0524164 0.85670263 12263.942
5.656868 -1.0431833 0.84683323 12263.942
5.6469188 -1.0340381 0.83792442 12263.942
5.6489363 -1.0290263 0.83093798 12263.942
5.6220093 -1.0166953 0.82012677 12263.942
5.5980763 -1.0054002 0.81029612 12263.942
5.5921106 -0.99830079 0.80235839 12263.942
5.5731673 -0.98805743 0.79249847 12263.942
5.5781846 -0.98307675 0.78549725 12263.942
5.5672402 -0.97392577 0.77759337 12263.942
5.5702677 -0.96792436 0.77060664 12263.942
5.5703063 -0.96089196 0.76363927 12263.942
5.6042895 -0.96123046 0.76047212 12263.942
5.6642447 -0.96585244 0.76015842 12263.942
5.7532029 -0.96876132 0.75671136 12263.942
6.5660672 0.87391263 -0.32062098 12263.944
5.7866931 0.82898748 0.11497412 12263.948
5.7895784 0.8179571 0.11490827 12263.948
5.8064885 0.80877668 0.11578283 12263.948
5.8454237 0.80237257 0.11556312 12263.948
6.74225 -0.49036482 -0.45888761 12263.953
6.7234297 -0.47822016 -0.44773865 12263.953
6.6976099 -0.46600297 -0.4365553 12263.953
6.7147455 -0.45722213 -0.42759734 12263.953
6.7408767 -0.4485299 -0.41968361 12263.953
6.7420239 -0.43858317 -0.41064227 12263.953
6.736177 -0.42856854 -0.40056655 12263.953
6.7473245 -0.41872555 -0.39157444 12263.953
5.5108342 0.44082227 0.76251006 12263.954
5.4999156 0.44489855 0.77058256 12263.954
5.4970012 0.44888714 0.7796157 12263.954
5.491087 0.45290685 0.78866357 12263.954
5.4971876 0.45779735 0.79865706 12263.954
5.5273261 0.46442005 0.81254166 12263.954
5.6155472 0.47439867 0.83515936 12263.954
5.6166372 0.4783411 0.84517276 12263.954
5.6718097 0.48669028 0.86194366 12263.954
5.679915 0.49155533 0.87292725 12263.954
5.6810055 0.49549776 0.88294071 12263.954
5.6921148 0.50032705 0.8949095 12263.954
5.6942153 0.50525898 0.90492266 12263.954
5.6943059 0.50921178 0.91494107 12263.954
5.7014003 0.51308733 0.92592496 12263.954
5.6984859 0.5170759 0.93495804 12263.954
5.7025862 0.52198714 0.94496137 12263.954
5.6836424 0.52415121 0.95206398 12263.955
5.6857324 0.52808326 0.96207249 12263.955
5.6197114 0.52677256 0.96138787 12263.955
5.6288166 0.53162724 0.97236657 12263.955
5.6571465 0.088374741 0.95714712 12263.958
5.6820946 0.086143769 0.95101506 12263.958
5.6980233 0.083015583 0.94292253 12263.958
5.6939445 0.08111354 0.93093318 12263.958
5.6998692 0.078093767 0.92188996 12263.958
5.6957903 0.076191716 0.90990067 12263.958
5.6877007 0.073331222 0.89792633 12263.958
5.6986356 0.071259528 0.88886315 12263.958
5.6915569 0.069388591 0.87688857 12263.958
5.6884718 0.066471547 0.86588961 12263.958
5.6743889 0.064677909 0.85294956 12263.958
5.632278 0.062193502 0.8361426 12263.958
5.5541549 0.061105866 0.81451744 12263.958
5.5230632 0.059497923 0.79966104 12263.958
5.5109744 0.05667891 0.78770638 12263.958
5.5038958 0.054807976 0.7757318 12263.958
5.5238347 0.052638244 0.76762432 12263.958
5.5187559 0.050746571 0.75563991 12263.958
6.7357359 -0.0046897242 -0.36757353 12263.959
6.6717014 -0.0029790881 -0.37725383 12263.959
6.6876483 -0.0010747298 -0.39232293 12263.959
6.7015848 -0.00014956569 -0.40738678 12263.959
6.7045369 0.0018849251 -0.42139193 12263.959
6.7054791 0.002940221 -0.43539187 12263.959
6.7104316 0.0049539641 -0.44940686 12263.959
6.7138267 0.34910542 -0.48480844 12263.963
6.7038074 0.34114859 -0.47179669 12263.963
6.6847782 0.33228517 -0.4587453 12263.963
6.6367612 0.32371315 -0.4435513 12263.963
6.6367364 0.31565732 -0.43158874 12263.963
6.6697159 0.30927321 -0.42277914 12263.963
6.6886954 0.30202496 -0.41190538 12263.963
6.6886764 0.29497379 -0.40093815 12263.963
6.6906514 0.28689721 -0.38898543 12263.963
6.6606231 0.27814791 -0.37587991 12263.963
6.674603 0.27095151 -0.36498156 12263.963
5.5874639 -0.84299982 0.7501089 12263.965
5.5664277 -0.84779578 0.75318897 12263.965
5.5753527 -0.85791665 0.75909811 12263.965
5.5712938 -0.86589807 0.76408046 12263.965
5.5602417 -0.87280238 0.76810199 12263.965
5.5771499 -0.88501078 0.77496254 12263.965
