# .PCD v0.7 - Point Cloud Data file format
VERSION 0.7
FIELDS x y z
SIZE 4 4 4
TYPE F F F
COUNT 1 1 1
WIDTH 1529
HEIGHT 1
VIEWPOINT 0 0 0 1 0 0 0
POINTS 1529
DATA ascii
6.8754091 -2.855093 0.91408664
7.9337487 -3.2945809 1.3606174
5.4474778 -2.1712503 0.30733147
6.0600238 -2.4153984 0.57074475
6.8665824 -2.7368755 0.90761197
7.881505 -3.1414027 1.3438089
4.9289517 -1.8832822 0.092101291
5.451612 -2.0829833 0.30585134
6.0616817 -2.3160822 0.56772053
6.8276167 -2.6087351 0.89743412
7.8837409 -3.012265 1.3367018
4.9120498 -1.7966896 0.09129557
5.4427543 -1.9908066 0.30372462
6.0547233 -2.2146475 0.56404215
6.828558 -2.4976945 0.89276725
7.8229256 -2.8614063 1.319311
4.9177823 -1.7193943 0.090935394
5.4116735 -1.8920724 0.30044815
6.0268674 -2.1071613 0.55858028
6.7754498 -2.3688867 0.88130057
7.8249526 -2.7358222 1.3129144
4.9184976 -1.6410313 0.090505011
5.4209223 -1.8086625 0.29949364
6.0392942 -2.0149794 0.55700189
6.7848997 -2.2637465 0.87822515
7.7833128 -2.5968621 1.299558
4.9218659 -1.5642359 0.090145767
5.4142718 -1.7207292 0.29773504
6.0322094 -1.9171183 0.55376089
6.7845497 -2.1562223 0.8740955
7.7748194 -2.4709435 1.2921023
4.9190412 -1.4861691 0.089695238
5.4183869 -1.6370343 0.29664239
6.0222998 -1.8194919 0.55040401
6.7434125 -2.0373585 0.86494982
7.721024 -2.3327205 1.2774823
4.9183898 -1.4094778 0.08930634
5.4110069 -1.5506487 0.29499301
6.0022564 -1.7200849 0.54626608
6.7426577 -1.9322639 0.86121732
7.7288303 -2.2148743 1.273398
4.918622 -1.3336715 0.088954829
5.419044 -1.4693595 0.29425445
5.9973645 -1.6261696 0.54364681
6.7536545 -1.8312356 0.85918599
7.7357564 -2.0975299 1.2694625
4.9185438 -1.258365 0.088618599
5.3893094 -1.3788061 0.29153836
5.9996777 -1.5349634 0.54180938
6.7204604 -1.7193692 0.85174507
7.6687121 -1.9619708 1.2537235
4.9164205 -1.1831182 0.088266179
5.3969712 -1.298761 0.2909174
6.0019488 -1.4443467 0.54009223
6.7135601 -1.6155932 0.84785283
7.6856394 -1.8495204 1.2520347
4.9155865 -1.1087395 0.087957285
5.3743567 -1.2122179 0.28873354
6.0013514 -1.3536402 0.53823984
6.7242126 -1.5166857 0.84636986
7.6755242 -1.7312597 1.2462223
4.9194293 -1.035848 0.087751754
5.3921094 -1.1353767 0.28878462
5.9687915 -1.2568045 0.53365159
6.6987157 -1.4104992 0.84053326
7.620091 -1.6045065 1.2333668
4.9278293 -0.96417654 0.08764644
5.4034109 -1.0572286 0.2885499
5.946826 -1.1635529 0.53014439
6.7191491 -1.3146652 0.8406499
7.6267242 -1.4922409 1.2308573
4.9181223 -0.88939112 0.087238438
5.3954101 -0.97570366 0.28734741
5.9555616 -1.0770012 0.52949464
6.6718769 -1.2065393 0.83248961
7.63271 -1.380296 1.2285089
4.9175081 -0.81677926 0.087011248
5.3914332 -0.89549649 0.28642362
5.9661341 -0.99095207 0.52911937
6.6897211 -1.1111372 0.83264643
7.5811567 -1.2592012 1.2171856
4.909893 -0.74346936 0.086679332
5.391583 -0.81640816 0.2857815
5.9571075 -0.90204144 0.52711976
6.6768022 -1.0110196 0.82915235
7.5857058 -1.1486483 1.2151519
4.9109755 -0.671884 0.0865198
5.3940954 -0.73798096 0.28532556
5.9607711 -0.81550944 0.52635717
6.6784558 -0.91369778 0.82764882
7.5764508 -1.0365549 1.2111686
4.9245167 -0.60207069 0.086597666
5.3867397 -0.65858203 0.28440872
5.9709191 -0.73000371 0.52627665
6.6742854 -0.81599718 0.82559997
7.579299 -0.92664403 1.2093797
4.9310412 -0.53135824 0.086569794
5.3968358 -0.58155125 0.28447312
5.9647169 -0.6427449 0.52486533
6.672164 -0.71897787 0.82398015
7.5798163 -0.8167845 1.2074732
4.9147906 -0.45855221 0.086160444
5.3923254 -0.50310642 0.28382671
5.9361405 -0.55384463 0.52159977
6.630301 -0.61861008 0.81763303
7.5844913 -0.70763654 1.2064807
4.9321299 -0.38905457 0.086357944
5.3958421 -0.42563295 0.28366211
5.9512334 -0.46944314 0.52228206
6.6242061 -0.52252835 0.81587553
7.5220881 -0.59335476 1.1950808
4.9139423 -0.31692654 0.085951261
5.3902531 -0.34764642 0.28307772
5.9393578 -0.38306114 0.52070534
6.6214662 -0.42705396 0.8147018
7.519568 -0.48497736 1.1934552
4.9074931 -0.24604027 0.085768074
5.39712 -0.27058801 0.2832059
5.9338226 -0.29749596 0.51979351
6.6288085 -0.33233953 0.8149364
7.5224152 -0.37714106 1.1929282
4.9047179 -0.17557167 0.08566688
5.4084063 -0.19360194 0.2836237
5.9200063 -0.21191542 0.51826441
6.6258683 -0.2371828 0.81407416
7.540215 -0.2699132 1.1950158
4.9076338 -0.10537683 0.08568269
5.3827991 -0.11557959 0.28216517
5.9159694 -0.12702782 0.51769876
6.639327 -0.14255978 0.81539351
7.5330491 -0.16174981 1.193391
4.9260831 -0.035252839 0.085987173
5.3977799 -0.038628474 0.28289247
5.9301972 -0.042438649 0.51883757
6.6253114 -0.047413141 0.81350559
7.5205832 -0.053820029 1.191172
4.9262147 0.035253782 0.085989468
5.4001622 0.038645525 0.28301734
5.9259224 0.042408057 0.51846355
6.6415949 0.047529668 0.81550497
7.5396414 0.053956416 1.1941907
4.9248233 0.10574593 0.0859828
5.3860316 0.11564899 0.2823346
5.9318614 0.12736906 0.51908946
6.6320829 0.14240424 0.81450385
7.5292597 0.16166843 1.1927906
4.9186406 0.17607005 0.085910052
5.3922582 0.19302389 0.28277686
5.9435916 0.21275969 0.52032918
6.6402535 0.23769774 0.81584162
7.5404949 0.26992321 1.1950603
4.9070449 0.2460178 0.085760236
5.3913636 0.27029943 0.28290385
5.9282799 0.29721808 0.51930797
6.6325092 0.33252504 0.81539136
7.5177851 0.37690893 1.192194
4.9208245 0.31737041 0.08607164
5.3896532 0.3476077 0.28304619
5.9328837 0.38264358 0.52013773
6.636209 0.42800477 0.81651568
7.5373611 0.48612496 1.1962793
4.9196577 0.38807076 0.086139567
5.3888497 0.4250814 0.2832945
5.9403543 0.46858498 0.52132726
6.6435003 0.5240503 0.81825191
7.5222588 0.59336823 1.1951078
4.9218426 0.45921019 0.086284071
5.3967004 0.50351465 0.28405699
5.9401293 0.5542168 0.52195024
6.6342688 0.61898029 0.81812233
7.5842166 0.70761091 1.206437
4.924787 0.53068435 0.086459994
5.3945489 0.58130485 0.2843526
5.9651546 0.64279211 0.52490389
6.6795993 0.71977913 0.82489842
7.5752459 0.81629205 1.206745
4.9245291 0.60207224 0.08659789
5.387754 0.65870601 0.28446224
5.9718809 0.73012131 0.52636147
6.6650667 0.81487012 0.82445961
7.5750866 0.92612904 1.2087076
4.9319391 0.67475212 0.086889133
5.3924799 0.73775995 0.28524008
5.9649391 0.81607968 0.52672517
6.6734414 0.91301173 0.82702738
7.5712867 1.0358484 1.210343
4.9207273 0.74510986 0.086870596
5.4007115 0.81779045 0.28626537
5.9634428 0.90300077 0.52768034
6.6670089 1.0095366 0.82793617
7.5883689 1.1490514 1.2155786
4.9186835 0.81697452 0.08703205
5.3961477 0.89627951 0.28667411
5.9761806 0.99262071 0.53001034
6.6699128 1.1078471 0.830181
7.566092 1.256699 1.214767
4.9167485 0.88914263 0.08721406
5.3967853 0.97595233 0.28742063
5.9616323 1.0780989 0.53003436
6.6636925 1.2050593 0.83146846
7.6241188 1.3787423 1.2271262
4.9196773 0.96258152 0.087501451
5.3880639 1.0542258 0.28773034
5.9683747 1.1677691 0.53206539
6.7164369 1.3141346 0.84031063
7.6172299 1.4903833 1.2293251
4.9306011 1.0382004 0.087951042
5.3894601 1.1348189 0.28864273
5.966794 1.2563838 0.53347296
6.7134376 1.413599 0.84238052
7.626668 1.6058912 1.2344314
4.9265208 1.1112058 0.088152938
5.3848367 1.2145816 0.28929657
6.0138478 1.3564588 0.53936058
6.7224765 1.5162942 0.84615129
7.679492 1.7321546 1.2468666
4.90418 1.1801727 0.088046424
5.3930035 1.2978063 0.29070354
5.9869494 1.4407371 0.53874248
6.7000966 1.6123533 0.84615254
7.6829357 1.8488699 1.2515942
4.9178281 1.2581819 0.088605694
5.3830152 1.3771958 0.29119787
5.9934378 1.5333669 0.54124588
6.7083998 1.7162836 0.85021651
7.6808825 1.9650844 1.2557132
4.9211397 1.3343542 0.089000367
5.4144382 1.4681107 0.29400435
5.9988394 1.6265695 0.54378051
6.7556825 1.8317856 0.85944402
7.7253766 2.0947156 1.2677592
4.9244843 1.4112244 0.089417003
5.4280958 1.5555458 0.29592463
5.9986587 1.7190539 0.54593861
6.7486401 1.9339782 0.86198139
7.7396307 2.2179694 1.2751775
4.9361391 1.4913348 0.090007007
5.4124079 1.6352279 0.29631507
6.0197415 1.818719 0.55017018
6.7630363 2.0432875 0.86746687
7.7269812 2.3345201 1.2784679
4.9340544 1.5681095 0.090369001
5.4194527 1.7223758 0.29801992
6.0180988 1.9126337 0.55246556
6.7939634 2.159214 0.87530833
7.7782898 2.4720464 1.2926791
4.9185762 1.6410574 0.090506457
5.4132128 1.8060905 0.29906774
6.024066 2.0098984 0.55559736
6.7873797 2.2645741 0.87854618
7.7727432 2.5933356 1.2977933
4.936873 1.7260689 0.091288395
5.4206209 1.8952006 0.30094486
6.0259261 2.1068323 0.55849302
6.7810841 2.3708565 0.88203341
7.819232 2.7338221 1.3119545
4.9236379 1.8009284 0.091510952
5.448359 1.9928566 0.30403739
6.053813 2.2143145 0.56395733
6.8247523 2.4963026 0.89226967
7.818316 2.8597202 1.3185337
4.9199104 1.8798277 0.091932349
5.4509501 2.0827305 0.30581421
6.0582995 2.3147898 0.56740373
6.8232846 2.6070797 0.89686465
7.8760285 3.0093184 1.3353941
4.9369421 1.9677616 0.092767395
5.4368796 2.167026 0.30673355
6.0690298 2.418988 0.57159299
6.8506112 2.7305098 0.90550089
7.8740168 3.138418 1.342532
4.9467854 2.0542099 0.093495265
5.4405112 2.2592351 0.3087312
6.0788555 2.5243151 0.57586235
6.8735065 2.8543031 0.91383374
7.9385228 3.2965636 1.3614361
4.9354529 2.1328244 0.093848452
5.4466543 2.3537369 0.31095976
6.0901752 2.6318302 0.5804438
6.912631 2.9872494 0.92462528
8.0000849 3.4571855 1.3803388
4.9342885 2.2166593 0.094419956
5.4435019 2.445416 0.31274608
6.0754929 2.7293291 0.58270812
6.8951259 3.0975375 0.92811912
7.9896798 3.5892503 1.3872657
4.9553809 2.3119292 0.095447011
5.4616952 2.5481498 0.31585449
6.11132 2.8512318 0.58999813
6.9504876 3.2427447 0.94172227
8.0348787 3.7486668 1.4042864
4.9453087 2.3940015 0.095903203
5.4613352 2.6438076 0.31798956
6.1266766 2.9658961 0.59551811
6.9492164 3.364084 0.94797707
8.0923376 3.917464 1.4239829
4.9264545 2.4725213 0.096214034
5.4706335 2.7456372 0.32078633
6.1232271 3.0731652 0.59939706
7.0025396 3.5144804 0.96201491
8.0902796 4.0604024 1.4337007
4.9362111 2.5665092 0.097112082
5.4518332 2.8345993 0.32203004
6.151557 3.19841 0.6065895
6.9951425 3.6370199 0.96805131
8.1556568 4.2404122 1.4558932
4.9347153 2.6561313 0.09782058
5.4891772 2.9545729 0.32670042
6.1527238 3.3117299 0.6113162
7.0379171 3.7881889 0.98137408
8.2094421 4.418767 1.4766338
4.9471598 2.7548649 0.098838791
5.4853301 3.0545495 0.3290399
6.1888118 3.4462888 0.61973941
7.0663619 3.9349594 0.99309242
4.9342213 2.8409297 0.099382527
5.4795232 3.1548932 0.33136642
6.1788554 3.5575409 0.62377763
7.0759807 4.07407 1.0025369
4.9673615 2.955467 0.10089173
5.5201945 3.2843902 0.3366344
6.212194 3.6961141 0.63241935
7.127327 4.2405972 1.0183072
4.9617782 3.0491321 0.10165436
5.514667 3.388896 0.33922064
6.2199473 3.8223076 0.63871294
7.1535273 4.3960152 1.0309348
4.9704814 3.1533623 0.10274686
5.5314269 3.5092361 0.34330615
6.239521 3.9584637 0.6464749
7.2103271 4.5743604 1.048449
4.9560447 3.2446048 0.10339785
5.5483747 3.6323891 0.34754926
6.2626915 4.1000357 0.65488893
7.2049346 4.7168999 1.057374
4.9641995 3.3524127 0.10455838
5.5406842 3.7417233 0.35038644
6.2731366 4.2363615 0.66225415
7.2435865 4.8917236 1.073212
4.9530988 3.4491522 0.10535362
5.5413766 3.8588068 0.35388684
6.3022351 4.3886404 0.67188877
7.3011012 5.0842133 1.0924037
4.9570699 3.5583375 0.10651051
5.578136 4.004158 0.35985771
6.3143468 4.5326328 0.68002701
7.3421707 5.2704368 1.109722
4.9538283 3.6645694 0.10755688
5.5644999 4.1163106 0.36274183
6.3395457 4.6896467 0.68989927
7.3764606 5.4566994 1.1265943
4.9429059 3.767127 0.10847934
5.5691953 4.2444396 0.36697069
6.3801613 4.8624997 0.70182145
7.4363384 5.6674418 1.1480111
4.9820457 3.9109302 0.11055553
5.5985527 4.3948913 0.37301204
6.3851604 5.012382 0.71019053
7.4807243 5.8724051 1.16772
4.9705815 4.0182261 0.11156599
5.5915813 4.5202436 0.3768197
6.4119763 5.1834521 0.72135139
7.5264482 6.084393 1.1883299
4.9829965 4.1475782 0.11316555
5.6264167 4.6831264 0.3836453
6.454051 5.372005 0.73465997
7.5628591 6.2949171 1.2081809
4.985075 4.2715521 0.11458955
5.623013 4.818181 0.38807592
6.4950433 5.5653958 0.74831706
7.6291351 6.5371633 1.2335901
4.9788108 4.3913069 0.1158785
5.6587982 4.991055 0.39543557
6.5254292 5.7554231 0.7612313
7.6769414 6.7710557 1.2568624
4.9845572 4.5248451 0.1175076
5.6467586 5.1259732 0.39968041
6.5284219 5.9263234 0.77139688
7.7742667 7.0572677 1.2892023
5.001091 4.6721439 0.11946166
5.6708946 5.2978911 0.4067145
6.5628233 6.1311531 0.78575069
7.8315825 7.3164597 1.3159385
5.0044012 4.811202 0.1211733
5.6984901 5.4784946 0.41427514
6.5978842 6.3431673 0.80073684
7.88767 7.5831594 1.3434633
4.999114 4.9457312 0.12274678
5.703012 5.6421127 0.42043188
6.6295767 6.5587826 0.81589293
7.9959679 7.910583 1.3810531
5.0067596 5.0971379 0.12471312
5.7334318 5.8369274 0.42878971
6.6781216 6.7986698 0.83375806
8.0341072 8.1791334 1.4077169
5.0043268 5.2426858 0.12650874
5.7306023 6.0035539 0.43496013
6.7108536 7.0304956 0.85032117
8.1543751 8.5427723 1.4500662
5.0159955 5.4077978 0.12874731
5.766902 6.2173581 0.44442442
6.7862701 7.316349 0.87305677
8.2040253 8.8448467 1.4812567
5.0188055 5.5685954 0.13085188
5.7839551 6.4175639 0.45277119
6.8369288 7.585887 0.89345145
5.0251212 5.738668 0.13314448
5.81499 6.6406951 0.46259391
6.8628573 7.8373551 0.9114061
5.0212317 5.9025803 0.1352661
5.8158345 6.8366556 0.47039753
6.9045 8.1164083 0.93226904
5.0432963 6.1033998 0.13819975
5.8368435 7.0637507 0.48022535
6.9952106 8.4656076 0.96077979
5.0403194 6.2807374 0.14056724
5.8826108 7.3303161 0.49257287
7.0313282 8.7617311 0.98286468
5.0387411 6.4662242 0.14308977
5.8990822 7.5703011 0.50297368
7.1143775 9.1298914 1.0126369
5.0669479 6.697979 0.14659831
5.9376569 7.8489661 0.51578879
7.1647143 9.4710083 1.0389909
5.0700822 6.9053483 0.14953332
5.9684753 8.1289415 0.52851909
7.2482824 9.8720131 1.0714908
5.0766668 7.1258979 0.15272008
5.9901314 8.4080887 0.54103845
7.3363843 10.297766 1.1061904
5.0878506 7.362339 0.15621066
6.0175424 8.7076435 0.55471486
7.4344535 10.757975 1.1440781
5.0980482 7.6076374 0.15985066
6.0552149 9.0359831 0.57005179
7.4878988 11.173926 1.1767948
5.0918355 7.8386774 0.16315715
6.0936451 9.3809233 0.58625042
7.6345959 11.753156 1.2261628
5.1108356 8.1200056 0.167473
6.1464972 9.7654467 0.60472077
7.7236171 12.271147 1.2685394
5.1152673 8.3910856 0.1715363
6.1854644 10.146637 0.62277949
7.8235359 12.833729 1.3149859
5.1250944 8.684473 0.17601629
6.2166796 10.534164 0.64103794
7.9278736 13.433783 1.3647025
5.1426835 9.0063286 0.18102916
6.2852707 11.007329 0.66428888
8.0821314 14.154154 1.4259851
5.1371994 9.3034658 0.18550469
6.354485 11.507969 0.68894273
8.2615252 14.961618 1.495268
5.1557536 9.6613007 0.19114864
6.3944569 11.982491 0.71179843
5.1945868 10.078753 0.19791657
6.4755392 12.56411 0.74076658
5.1828551 10.419542 0.20313109
6.5515437 13.171135 0.77094835
5.2122693 10.865955 0.21035802
6.5794244 13.716048 0.79724985
5.2139673 11.280733 0.21692084
6.6701655 14.431306 0.83318967
5.238749 11.77395 0.22494011
6.7692699 15.213755 0.87268084
5.2697558 12.315236 0.23381634
6.8623319 16.037031 0.91417712
5.2684035 12.816187 0.24187087
6.9708195 16.957569 0.96086562
5.3151021 13.475062 0.25284371
7.102561 18.006701 1.014448
5.3405085 14.128614 0.26364553
7.2225461 19.107651 1.0705388
5.3860054 14.889909 0.27638468
7.4558001 20.611971 1.1487241
5.3781738 15.560992 0.2873829
7.6124768 22.025635 1.2213113
5.424017 16.452639 0.30238521
7.7903738 23.630495 1.3039834
5.481586 17.463955 0.31949756
7.9999442 25.48727 1.3999823
5.5296617 18.541807 0.33773392
5.5378456 19.588678 0.35532218
5.6009126 20.952772 0.37857273
5.6882019 22.569225 0.40626603
5.7727685 24.371496 0.43717632
5.8807735 26.513842 0.47404727
5.8826575 28.441986 0.50696367
6.013289 31.327644 0.55680776
6.1913762 34.950268 0.61955661
6.3818665 39.291676 0.69482541
6.642457 44.952576 0.79316902
6.9342146 52.070099 0.91690946
7.1614323 60.367207 1.0611006
7.7567983 74.483704 1.307147
7.7559762 -74.475815 1.3070085
7.1605163 -60.359482 1.0609649
6.9325991 -52.057968 0.91669583
6.6434407 -44.959236 0.7932865
6.3799248 -39.279716 0.69461399
6.1909533 -34.947884 0.61951435
6.0135956 -31.329239 0.55683613
5.8826776 -28.442083 0.50696534
5.88236 -26.520992 0.47417513
5.7703958 -24.361477 0.43699661
5.6853728 -22.558002 0.40606397
5.5968723 -20.937656 0.37829962
5.5396252 -19.594973 0.35543635
5.5338922 -18.555992 0.33799231
5.4813943 -17.463345 0.31948638
8.0000706 -25.487673 1.4000044
5.4227719 -16.448862 0.3023158
7.7918081 -23.634846 1.3042235
5.3852167 -15.581369 0.28775924
7.6182685 -22.042393 1.2222404
5.388586 -14.897043 0.27651709
7.4570603 -20.615456 1.1489183
5.3423729 -14.133548 0.26373756
7.2207785 -19.102974 1.0702767
5.3173423 -13.480742 0.25295028
7.1068392 -18.017548 1.0150591
5.2680221 -12.815259 0.24185336
6.9709115 -16.957794 0.96087825
5.2705908 -12.317187 0.23385338
6.8610592 -16.034056 0.9140076
5.2452569 -11.788576 0.22521956
6.7621684 -15.197795 0.87176538
5.2107153 -11.273697 0.21678554
6.6734643 -14.438442 0.83360165
5.216939 -10.87569 0.21054648
6.582583 -13.722632 0.79763258
5.1854753 -10.424809 0.20323378
6.5391736 -13.146267 0.76949269
5.192699 -10.07509 0.19784465
6.473249 -12.559666 0.74050462
5.1544499 -9.6588573 0.1911003
6.3879948 -11.970382 0.71107906
5.1461635 -9.3196993 0.18582839
6.3466039 -11.493696 0.68808824
8.2650499 -14.968001 1.4959058
5.1472354 -9.0143003 0.1811894
6.2854605 -11.007662 0.66430897
8.0834513 -14.156465 1.4262179
5.1275172 -8.6885786 0.17609948
6.2049885 -10.514354 0.63983238
7.932466 -13.441565 1.3654931
5.1087165 -8.3803396 0.17131662
6.1832738 -10.143044 0.62255895
7.8245368 -12.835372 1.3151542
5.1136913 -8.1245432 0.16756658
6.1506019 -9.7719679 0.60512459
7.7228594 -12.269943 1.268415
5.0939617 -7.8419509 0.16322528
6.0947528 -9.3826294 0.58635706
7.6202211 -11.731027 1.2238541
5.0961466 -7.6047993 0.15979102
6.0541596 -9.0344076 0.56995243
7.4747977 -11.154376 1.1747358
5.0899148 -7.3653259 0.15627404
6.0250754 -8.718544 0.55540925
7.4277802 -10.748318 1.1430511
5.0730562 -7.1208296 0.15261146
5.9778104 -8.3907938 0.53992558
7.3398976 -10.302697 1.1067201
5.0719104 -6.9078383 0.14958724
5.9714375 -8.1329756 0.52878141
7.2538967 -9.8796587 1.0723206
5.0625148 -6.6921186 0.14647004
5.9292965 -7.8379145 0.51506257
7.1592617 -9.4638004 1.0382001
5.0400786 -6.4679403 0.14312775
5.9079328 -7.5816588 0.50372833
7.1122985 -9.127224 1.012341
5.0441089 -6.2854595 0.14067292
5.8655238 -7.3090239 0.49114209
7.0276403 -8.7571363 0.98234922
5.0477772 -6.1088228 0.13832253
5.8358054 -7.0624948 0.48013994
6.9846458 -8.4528217 0.95932877
5.0138345 -5.8938847 0.13506684
5.8176289 -6.8387647 0.47054267
6.8969283 -8.1075077 0.9312467
5.0144672 -5.726501 0.1328622
5.8242211 -6.651237 0.46332827
6.8675551 -7.84272 0.91202998
5.0111065 -5.5600529 0.13065115
5.7803507 -6.4135647 0.45248905
6.827858 -7.5758224 0.89226609
5.0202494 -5.4123836 0.1288565
5.7601833 -6.2101145 0.44390664
6.7854733 -7.3154902 0.87295425
8.2056627 -8.846611 1.4815522
5.0015998 -5.2398291 0.12643981
5.7287211 -6.0015836 0.43481737
6.715838 -7.0357175 0.85095274
8.145689 -8.5336723 1.4485217
4.9964342 -5.0866261 0.12445591
5.730423 -5.8338642 0.42856467
6.6778393 -6.7983828 0.83372277
8.0355673 -8.1806192 1.4079726
4.997386 -4.9440217 0.12270435
5.697978 -5.6371322 0.42006075
6.640964 -6.5700483 0.81729436
7.9793105 -7.8941035 1.3781761
4.9907837 -4.79811 0.12084357
5.6970663 -5.4771261 0.41417167
6.6063743 -6.3513298 0.80176723
7.8765736 -7.5724916 1.3415734
5.0014586 -4.6724873 0.11947043
5.6764402 -5.303072 0.40711218
6.5557437 -6.1245394 0.78490311
7.8243508 -7.3097034 1.3147233
4.9910288 -4.5307198 0.11766016
5.6418719 -5.1215377 0.39933452
6.5306416 -5.9283381 0.77165914
7.7770324 -7.0597777 1.2896609
4.9760389 -4.3888621 0.11581399
5.6485705 -4.9820342 0.39472085
6.5186958 -5.7494841 0.76044577
7.6714516 -6.7662139 1.2559637
4.9679885 -4.2569113 0.11419679
5.6196909 -4.8153343 0.38784665
6.4895983 -5.56073 0.74768972
7.6253982 -6.5339613 1.232986
4.9840236 -4.1484332 0.11318888
5.6413293 -4.695539 0.38466212
6.4570298 -5.3744845 0.73499906
7.5733571 -6.3036551 1.2098579
4.9861221 -4.0307894 0.11191481
5.5981317 -4.5255389 0.37726113
6.4211278 -5.1908503 0.72238094
7.5223007 -6.0810404 1.1876751
4.9765763 -3.9066367 0.11043416
5.5889621 -4.3873625 0.37237301
6.3915787 -5.0174203 0.71090442
7.468122 -5.8625121 1.1657528
4.9636846 -3.782963 0.10893535
5.5650387 -4.241272 0.3666968
6.3818102 -4.8637567 0.70200282
7.4347477 -5.6662297 1.1477656
4.9667125 -3.6741004 0.10783661
5.5755434 -4.1244802 0.36346176
6.3405123 -4.690362 0.69000447
7.3865929 -5.4641948 1.1281418
5.5667582 -3.995991 0.35912371
6.3245058 -4.5399256 0.68112111
7.3381414 -5.2675443 1.109113
5.5332117 -3.8531213 0.35336542
6.3110929 -4.3948083 0.67283309
7.2964301 -5.0809603 1.0917047
6.2769251 -4.2389202 0.6626541
7.2546873 -4.8992205 1.0748568
6.2515626 -4.0927496 0.65372515
7.2129803 -4.722167 1.0585548
6.256496 -3.9692328 0.64823365
7.2107477 -4.5746274 1.0485103
6.2163911 -3.8201222 0.63834774
7.1590881 -4.3994322 1.0317363
7.1250224 -4.2392263 1.017978
7.0682282 -4.0696068 1.0014385
7.0857363 -3.9457483 0.99581528
7.0356898 -3.7869902 0.98106354
8.2019167 -4.4147167 1.4752803
6.995369 -3.6371377 0.96808267
8.1565638 -4.2408838 1.4560552
6.1153088 -3.069191 0.5986219
6.9864283 -3.5063944 0.9598015
8.0862713 -4.0583911 1.4329904
6.112577 -2.9590707 0.59414762
6.9602995 -3.3694494 0.949489
8.0971651 -3.9198008 1.4248322
6.1172485 -2.8539975 0.59057045
6.9367599 -3.23634 0.93986237
8.0409222 -3.7514863 1.4053426
6.0888171 -2.7353146 0.58398604
6.9071016 -3.1029174 0.92973119
7.9764266 -3.5832965 1.3849646
5.445147 -2.3530855 0.31087369
6.0793529 -2.6271534 0.57941234
6.9143968 -2.9880126 0.92486149
8.0035591 -3.4586871 1.3809383
5.4383812 -2.2583506 0.30861032
6.0849295 -2.5268373 0.57643771
6.8656201 -2.8510282 0.91278523
7.933156 -3.2943347 1.3605157
4.9361544 -1.9674475 0.092752583
5.4361653 -2.1667416 0.30669329
6.0493202 -2.4111321 0.56973666
6.8793492 -2.7419643 0.90929949
7.874299 -3.1385305 1.3425802
4.9324865 -1.8846328 0.09216734
5.4334407 -2.0760403 0.30483189
6.0649991 -2.3173497 0.56803119
6.835053 -2.6115763 0.89841157
7.8883009 -3.0140073 1.3374749
4.9063449 -1.794603 0.091189541
5.4461856 -1.9920616 0.3039161
6.0638194 -2.2179747 0.56488955
6.8177214 -2.4937308 0.89135045
7.8282309 -2.8633468 1.3202058
4.9055781 -1.7151273 0.090709724
5.4008741 -1.8882966 0.29984856
6.0240207 -2.1061661 0.55831647
6.7852035 -2.3722968 0.88256925
7.8221121 -2.7348292 1.3124378
4.9267864 -1.6437968 0.090657532
5.418509 -1.8078575 0.29936033
6.0209775 -2.008868 0.55531251
6.7895308 -2.2652919 0.87882465
7.7816877 -2.5963197 1.2992867
4.9159613 -1.5623593 0.090037622
5.4269109 -1.7247461 0.29843003
6.0316329 -1.916935 0.55370796
6.7797837 -2.1547074 0.87348145
7.7610049 -2.466553 1.2898065
4.9122505 -1.4841175 0.089571416
5.4031897 -1.6324427 0.29581037
6.0220122 -1.8194051 0.55037773
6.7598057 -2.0423114 0.8670525
7.7259798 -2.3342175 1.2783022
4.9235344 -1.4109522 0.089399762
5.4076042 -1.5496736 0.29480752
5.9901438 -1.7166137 0.54516369
6.7555361 -1.9359546 0.86286229
7.7248511 -2.2137339 1.2727424
4.9179621 -1.3334924 0.088942893
5.4072013 -1.4661485 0.29361141
6.0028696 -1.6276623 0.54414582
6.7595768 -1.8328415 0.85993946
7.7171602 -2.0924878 1.2664109
4.9170709 -1.2579882 0.088592052
5.3814168 -1.3767868 0.29111138
6.0112858 -1.5379331 0.54285765
6.7154298 -1.7180821 0.85110748
7.6673284 -1.9616168 1.2534974
4.9133615 -1.1823822 0.088211268
5.4018526 -1.2999357 0.29118055
5.988893 -1.4412048 0.53891736
6.7282524 -1.6191288 0.84970832
7.6597133 -1.8432815 1.2478112
4.9155984 -1.1087422 0.087957494
5.3887539 -1.2154652 0.289507
5.9942698 -1.3520429 0.53760469
6.7024617 -1.5117797 0.84363204
7.6695304 -1.7299079 1.2452492
4.9183049 -1.0356113 0.087731697
5.396596 -1.1363215 0.28902492
5.9723315 -1.2575498 0.53396809
6.7131238 -1.4135331 0.84234118
7.6171374 -1.6038845 1.2328888
4.9227452 -0.96318179 0.087556019
5.3907561 -1.0547525 0.2878741
5.9694557 -1.1679806 0.53216177
6.7113528 -1.3131398 0.83967453
7.6162558 -1.4901927 1.2291678
4.9144959 -0.88873535 0.08717411
5.383348 -0.97352237 0.28670502
5.9541769 -1.0767508 0.5293715
6.6867962 -1.2092373 0.83435124
7.607192 -1.3756813 1.2244017
4.9153738 -0.81642479 0.086973488
5.3890753 -0.89510483 0.28629836
5.9810691 -0.9934327 0.53044391
6.6824555 -1.1099303 0.83174211
7.5773344 -1.2585663 1.2165719
4.9309645 -0.74666005 0.087051325
5.3881888 -0.81589425 0.28560162
5.9657884 -0.90335596 0.52788788
6.6651249 -1.0092514 0.82770222
7.5788817 -1.147615 1.2140588
4.9321094 -0.67477536 0.086892135
5.3980618 -0.7385236 0.28553537
5.9653745 -0.81613922 0.52676362
6.6719103 -0.91280228 0.82683766
7.5705261 -1.0357444 1.2102215
4.9179187 -0.601264 0.086481646
5.3908153 -0.65908027 0.28462389
5.9656186 -0.72935569 0.52580947
6.6718102 -0.81569457 0.82529378
7.5798731 -0.92671418 1.2094713
4.9210758 -0.53028446 0.086394846
5.3920064 -0.58103091 0.28421858
5.9670806 -0.64299965 0.52507335
6.691412 -0.72105199 0.82635719
7.5861449 -0.81746644 1.2084812
4.924962 -0.45950121 0.086338758
5.4005489 -0.50387371 0.28425956
5.9457326 -0.55473959 0.52244258
6.62007 -0.61765558 0.81637138
7.5668674 -0.70599222 1.2036773
4.9046469 -0.38688669 0.085876741
5.3859801 -0.42485505 0.28314367
5.9332042 -0.46802098 0.5206998
6.6391459 -0.52370679 0.81771559
7.5245605 -0.59354979 1.1954736
4.9257669 -0.31768918 0.086158089
5.387732 -0.34748381 0.28294531
5.9391694 -0.38304895 0.52068877
6.6403642 -0.42827278 0.81702697
7.5173316 -0.48483315 1.1931003
4.9320359 -0.24727075 0.086197004
5.3826103 -0.26986057 0.28244454
5.9250755 -0.29705742 0.51902729
6.6293955 -0.33236894 0.81500852
7.5120325 -0.3766205 1.1912817
4.9222598 -0.1761996 0.085973263
5.4073567 -0.19356437 0.28356865
5.9330831 -0.21238352 0.51940918
6.6440563 -0.23783386 0.8163088
7.5343695 -0.26970395 1.1940894
4.9161057 -0.10555874 0.085830599
5.3871393 -0.11567278 0.28239268
5.9403596 -0.12755154 0.51983315
6.6349196 -0.14246516 0.8148523
7.524581 -0.16156799 1.1920495
4.9196982 -0.035207149 0.085875727
5.3919034 -0.038586423 0.28258449
5.934154 -0.042466965 0.5191837
6.6537623 -0.047616743 0.81699902
7.5234203 -0.053840332 1.1916214
4.919724 0.035207335 0.085876174
5.3861041 0.038544919 0.28228056
5.9412489 0.042517737 0.51980448
6.6446786 0.047551736 0.81588358
7.5244632 0.053847793 1.1917865
4.9170666 0.10557936 0.08584737
5.3903031 0.11574072 0.28255853
5.9275632 0.12727678 0.51871336
6.6374412 0.1425193 0.81516194
7.5303402 0.16169165 1.1929618
4.9275446 0.17638879 0.086065575
5.4085264 0.19360624 0.28362998
5.9346132 0.2124383 0.51954317
6.6420283 0.23776127 0.81605965
7.523932 0.26933032 1.1924353
4.9252605 0.24693106 0.086078592
5.3861718 0.27003914 0.28263143
5.9302168 0.29731518 0.51947761
6.628943 0.33234626 0.81495291
7.5430808 0.37817714 1.1962054
4.919764 0.31730202 0.086053088
5.3901272 0.34763828 0.28307107
5.9400535 0.38310599 0.52076632
6.6213264 0.42704496 0.81468463
7.521255 0.48508617 1.193723
4.9195709 0.38806391 0.086138047
5.3935771 0.42545432 0.28354305
5.9193025 0.4669244 0.51947975
6.644083 0.52409625 0.81832373
7.542357 0.5949536 1.198301
4.9172401 0.45878077 0.086203389
5.3976016 0.50359869 0.28410444
5.9375443 0.55397558 0.52172309
6.6417785 0.619681 0.8190484
7.575336 0.70678234 1.2050244
4.9278555 0.53101498 0.086513869
5.3890276 0.58070993 0.28406155
5.9658318 0.64286506 0.5249635
6.687068 0.72058392 0.82582074
7.5644889 0.81513286 1.2050314
4.9146209 0.60086083 0.086423658
5.3926764 0.65930784 0.28472215
5.972229 0.73016387 0.5263921
6.6782746 0.81648487 0.82609344
7.5678892 0.92524904 1.2075591
4.9233913 0.67358261 0.086738534
5.3926167 0.73777866 0.28524733
5.9779897 0.81786513 0.52787757
6.6689477 0.91239697 0.82647049
7.5834804 1.0375167 1.2122923
4.9073586 0.74308562 0.086634591
5.3825183 0.81503558 0.28530103
5.9559088 0.90185988 0.52701366
6.6881394 1.0127363 0.83056027
7.5834708 1.1483098 1.2147939
4.9286418 0.81862849 0.087208249
5.3950577 0.89609843 0.28661618
5.9574213 0.98950487 0.52834666
6.6772709 1.1090692 0.83109683
7.5639119 1.2563368 1.214417
4.9086914 0.8876856 0.087071143
5.3951769 0.9756614 0.28733498
5.9614406 1.0780643 0.53001732
6.6728053 1.2067072 0.83260554
7.6284609 1.3795276 1.227825
4.9038463 0.95948398 0.087219872
5.3968306 1.055941 0.28819847
5.9637585 1.1668658 0.53165382
6.7147269 1.3138 0.84009671
7.6208649 1.4910945 1.2299117
4.9145608 1.0348228 0.08766491
5.385457 1.133976 0.28842834
5.9661622 1.2562509 0.53341651
6.7234912 1.4157159 0.843642
7.6138029 1.6031824 1.2323492
4.9128752 1.108128 0.087908767
5.3890171 1.2155246 0.28952116
6.0010848 1.3535801 0.53821594
6.7173586 1.5151398 0.84550714
7.6674299 1.729434 1.2449081
4.9096556 1.1814903 0.088144727
5.4021425 1.3000056 0.29119617
6.0040779 1.444859 0.5402838
6.7116194 1.6151261 0.84760773
7.6698513 1.8457211 1.2494627
4.9152241 1.2575158 0.088558786
5.4061346 1.3831108 0.29244852
5.9994354 1.5349014 0.54178751
6.7188482 1.7189567 0.85154074
7.6671343 1.961567 1.2534655
4.9329681 1.3375614 0.089214288
5.4080453 1.4663771 0.29365721
6.0047326 1.6281675 0.54431468
6.7517462 1.8307183 0.85894328
7.7202511 2.0933259 1.2669181
4.9141126 1.4082522 0.089228682
5.4269829 1.5552269 0.29586399
6.0001321 1.7194761 0.54607272
6.751296 1.9347395 0.86232066
7.7262168 2.2141254 1.2729675
4.9138327 1.4845955 0.089600265
5.4156165 1.6361973 0.29649073
6.0294156 1.8216418 0.55105436
6.7293649 2.0331147 0.86314803
7.7286177 2.3350146 1.2787386
4.9262285 1.5656226 0.090225674
5.4092607 1.7191366 0.29745945
6.0254097 1.9149572 0.55313665
6.7907739 2.1582003 0.87489742
7.7890325 2.4754605 1.2944645
4.9071002 1.6372286 0.090295292
5.4246979 1.8099223 0.29970226
6.0353284 2.0136561 0.5566361
6.7778749 2.2614028 0.87731594
7.7840209 2.5970984 1.2996763
4.9147215 1.7183241 0.090878792
5.4249454 1.8967127 0.30118498
6.0204673 2.1049237 0.55798709
6.7816982 2.3710713 0.88211334
7.8229513 2.7351227 1.3125786
4.9310589 1.8036427 0.091648877
5.430469 1.986313 0.30303904
6.0525098 2.2138379 0.56383598
6.8175435 2.4936657 0.8913272
7.8272719 2.8629961 1.320044
4.940207 1.8875827 0.092311598
5.4531875 2.083585 0.3059397
6.0472813 2.31058 0.5663718
6.8191161 2.6054871 0.89631677
7.881999 3.0115993 1.3364064
4.9430676 1.970203 0.092882484
5.4356966 2.1665547 0.30666682
6.0510011 2.4118021 0.56989497
6.8673577 2.7371848 0.90771443
7.8706369 3.1370709 1.3419558
4.932662 2.0483449 0.093228325
5.4569964 2.2660809 0.30966669
6.1090899 2.5368702 0.57872653
6.8573484 2.8475933 0.91168547
7.9409881 3.2975872 1.361859
4.9341421 2.1322579 0.09382353
5.4384933 2.3502102 0.31049383
6.0931087 2.6330979 0.5807234
6.9181895 2.9896514 0.92536873
7.9860811 3.451134 1.3779227
4.9335632 2.2163332 0.094406076
5.4331341 2.4407585 0.31215045
6.0899229 2.7358115 0.58409208
6.9120736 3.1051509 0.93040037
8.0008421 3.5942645 1.3892038
4.9318738 2.300962 0.09499424
5.4732795 2.5535543 0.31652442
6.1298332 2.859869 0.59178543
6.9419627 3.2387676 0.94056731
8.0444813 3.7531466 1.4059646
4.9418077 2.3923068 0.095835313
5.4708104 2.6483943 0.31854123
6.123919 2.9645615 0.59525007
6.961206 3.3698883 0.94961262
8.0892324 3.9159608 1.4234364
4.9493728 2.4840236 0.096661627
5.4844036 2.7525485 0.32159379
6.117156 3.0701182 0.59880275
6.990283 3.5083289 0.96033102
8.0959263 4.0632362 1.4347013
4.9408774 2.5689354 0.097203881
5.4715319 2.8448412 0.32319358
6.1452246 3.1951177 0.60596508
6.9911656 3.6349523 0.96750098
8.1443157 4.2345152 1.4538685
4.9350286 2.6563001 0.097826794
5.4990015 2.959861 0.32728514
6.1513677 3.3109996 0.61118138
7.0200973 3.7785974 0.97888929
8.2016726 4.4145851 1.4752363
4.935987 2.7486434 0.098615579
5.4845018 3.0540884 0.32899022
6.1860991 3.4447782 0.61946774
7.0908399 3.94859 0.9965325
8.2703457 4.6054077 1.499292
4.9431119 2.8460486 0.099561602
5.4991202 3.1661763 0.33255154
6.1822691 3.5595062 0.6241222
7.0788088 4.0756984 1.0029376
4.9497094 2.9449644 0.1005332
5.5086927 3.2775469 0.335933
6.2137685 3.6970508 0.63257962
7.1168432 4.2343597 1.0168093
4.973628 3.0564144 0.10189714
5.5297961 3.3981929 0.34015125
6.2100711 3.8162384 0.63769871
7.1595273 4.3997021 1.0317996
4.9626036 3.1483645 0.10258402
5.5165668 3.4998085 0.34238386
6.2639832 3.9739828 0.64900941
7.2051868 4.5710993 1.0477017
4.9586616 3.2463181 0.10345244
5.553607 3.6358149 0.34787703
6.2468395 4.0896578 0.65323126
7.2012405 4.7144814 1.056832
4.9657831 3.3534822 0.10459173
5.5482965 3.7468638 0.35086784
6.2915788 4.248816 0.66420102
7.246582 4.8937469 1.0736558
4.9399586 3.440002 0.10507412
5.5357642 3.8548985 0.35352841
6.3181701 4.3997364 0.67358756
7.2915173 5.077539 1.0909696
4.9565306 3.5579505 0.10649893
5.5767984 4.0031981 0.35977143
6.3177838 4.5351 0.68039715
7.3386598 5.2679162 1.1091913
4.956975 3.6668971 0.10762519
5.5653701 4.1169543 0.36279854
6.3461051 4.694499 0.69061309
7.3891692 5.4661002 1.1285352
4.9556165 3.7768142 0.10875829
5.5665808 4.2424474 0.36679843
6.3805909 4.8628273 0.70186871
7.4237208 5.6578255 1.1460632
4.9856038 3.9137232 0.11063448
5.5979624 4.3944278 0.3729727
6.397903 5.0223851 0.71160787
7.4736757 5.8668718 1.1666197
4.9781489 4.0243435 0.11173585
5.5992498 4.5264425 0.37733647
6.4266896 5.1953464 0.72300667
7.5202618 6.079392 1.1873531
4.9919715 4.1550484 0.11336938
5.6103754 4.669775 0.38255149
6.4477911 5.3667941 0.7339474
7.590168 6.3176475 1.2125436
4.9761543 4.2639084 0.11438449
5.6271009 4.8216834 0.38835803
6.48 5.552506 0.74658394
7.6223264 6.5313292 1.2324892
4.9801922 4.3925252 0.11591065
5.6512361 4.9843855 0.39490715
6.522944 5.753231 0.76094139
7.6727262 6.7673378 1.2561723
4.9754505 4.5165782 0.11729291
5.6453562 5.1247005 0.39958116
6.5125775 5.9119401 0.76952469
7.7735062 7.0565767 1.2890762
5.0048814 4.6756849 0.1195522
5.6726508 5.2995319 0.40684044
6.5643406 6.1325703 0.78593236
7.8234468 7.3088589 1.3145714
5.0076303 4.8143063 0.12125149
5.7000628 5.4800072 0.41438949
6.5905085 6.3360763 0.7998417
7.8659863 7.5623131 1.3397701
4.9912343 4.9379358 0.12255331
5.6936092 5.6328101 0.41973868
6.6291285 6.5583396 0.81583774
7.9806862 7.8954644 1.3784137
4.9959311 5.0861135 0.12444339
5.7288895 5.832303 0.42844996
6.6753907 6.7958894 0.83341706
8.0375538 8.182641 1.4083207
4.993989 5.2318559 0.12624741
5.7384448 6.0117707 0.4355554
6.7049704 7.024332 0.8495757
8.1586628 8.5472651 1.4508288
5.0153022 5.4070501 0.12872952
5.7548618 6.2043777 0.44349656
6.7785335 7.3080082 0.87206143
8.2059002 8.8468676 1.4815952
5.0214214 5.5714979 0.13092008
5.7808433 6.4141111 0.45252758
6.8299541 7.5781484 0.89254004
5.0190353 5.7317176 0.13298324
5.8204908 6.6469769 0.4630315
6.8675094 7.8426676 0.91202384
5.0301652 5.9130821 0.13550676
5.8148165 6.8354588 0.47031522
6.9058928 8.1180458 0.93245715
5.0521693 6.1141376 0.13844289
5.842145 7.0701666 0.48066154
6.9867358 8.4553518 0.95961583
5.0404181 6.2808604 0.14056998
5.8765168 7.3227224 0.4920626
7.0283298 8.7579956 0.9824456
5.0380702 6.465363 0.14307071
5.9000878 7.5715919 0.50305945
7.1244054 9.1427603 1.0140643
5.0644526 6.6946807 0.14652613
5.9357624 7.8464613 0.51562423
7.1644602 9.4706726 1.038954
5.0660634 6.8998747 0.14941479
5.9770079 8.1405621 0.52927464
7.2500381 9.874404 1.0717503
5.0618362 7.1050806 0.15227394
6.0071511 8.4319782 0.54257572
7.3441777 10.308705 1.1073655
5.0842929 7.3571906 0.15610144
6.0253081 8.7188797 0.55543065
7.4290848 10.750205 1.1432519
5.0886803 7.593658 0.15955693
6.0497828 9.0278769 0.56954038
7.47785 11.158931 1.1752156
5.0915179 7.8381886 0.16314697
6.0806565 9.3609285 0.58500087
7.6235781 11.736195 1.2243932
5.106678 8.1133995 0.16733676
6.1566949 9.7816486 0.6057241
7.7179732 12.262179 1.2676125
5.1040506 8.3726854 0.17116016
6.1792202 10.136394 0.62215084
7.8383493 12.858029 1.3174758
5.1321874 8.6964922 0.17625988
6.2091236 10.52136 0.64025879
7.932713 13.441983 1.3655356
5.1453848 9.0110598 0.18112426
6.2832041 11.003711 0.66407055
8.0887194 14.165691 1.4271474
5.135828 9.3009825 0.18545517
6.3516135 11.502769 0.68863142
8.2535353 14.947149 1.4938219
5.1646132 9.6779032 0.19147712
6.3882132 11.970791 0.71110338
5.1952839 10.080106 0.19794315
6.4722066 12.557644 0.74038535
5.1873541 10.428587 0.20330742
6.5475402 13.163087 0.77047724
5.2122774 10.865973 0.21035835
6.5800557 13.717363 0.79732627
5.2111926 11.274729 0.21680538
6.6757855 14.443464 0.83389163
5.2407012 11.778337 0.22502396
6.761827 15.197027 0.87172133
5.2714338 12.319157 0.23389077
6.8669162 16.047745 0.91478783
5.2686615 12.816813 0.2418827
6.9707813 16.957478 0.96086037
5.3112826 13.465379 0.252662
7.1077037 18.019739 1.0151826
5.3442807 14.138596 0.26383176
7.2219477 19.10607 1.0704501
5.3877182 14.894645 0.2764726
7.4515328 20.600174 1.1480666
5.3813028 15.570046 0.28755012
7.621901 22.052904 1.2228234
5.4256382 16.457556 0.30247557
7.7852659 23.615002 1.3031285
5.4799891 17.458868 0.31940448
8.0058708 25.506151 1.4010195
5.5328918 18.552639 0.33793122
5.5391164 19.593174 0.35540375
5.6027484 20.959639 0.37869683
5.6894884 22.574331 0.40635794
5.7683825 24.35298 0.43684417
5.8825908 26.522034 0.47419375
5.8832698 28.444948 0.50701642
6.0122256 31.322102 0.55670929
6.1942105 34.966267 0.61984026
6.3803067 39.28207 0.6946556
6.6447616 44.96817 0.79344416
6.9360695 52.084026 0.91715473
7.1621222 60.37302 1.0612029
7.7605186 74.519424 1.3077739
7.7592559 -74.507301 1.3075613
7.1630573 -60.380905 1.0613414
6.9321523 -52.054615 0.91663682
6.6422133 -44.950928 0.79313993
6.383585 -39.302254 0.69501251
6.1923299 -34.95565 0.61965203
6.0142817 -31.332815 0.55689973
5.8809938 -28.433943 0.50682026
5.8770428 -26.497021 0.47374651
5.7685113 -24.353521 0.43685389
5.6837049 -22.551382 0.40594482
5.600976 -20.953009 0.37857702
5.533947 -19.574888 0.35507205
5.52953 -18.541367 0.33772591
5.4822788 -17.466164 0.31953794
8.0022011 -25.494461 1.4003773
5.4241157 -16.452938 0.30239072
7.785666 -23.616215 1.3031955
5.3803735 -15.567357 0.28750044
7.6196404 -22.046362 1.2224606
5.3922691 -14.907227 0.27670613
7.456265 -20.613256 1.1487957
5.3450775 -14.140702 0.26387107
7.2176805 -19.09478 1.0698175
5.3126259 -13.468785 0.25272593
7.1057754 -18.014851 1.0149071
5.2636604 -12.804648 0.24165311
6.9715147 -16.959263 0.96096146
5.2735286 -12.324052 0.23398373
6.867373 -16.048811 0.91484869
5.2410717 -11.77917 0.22503985
6.7730532 -15.222258 0.87316859
5.2126026 -11.27778 0.21686405
6.6674476 -14.425425 0.8328501
5.2181749 -10.878267 0.21059637
6.5790858 -13.715342 0.79720879
5.1843324 -10.422511 0.20318899
6.5440297 -13.15603 0.77006418
5.1936398 -10.076916 0.19788051
6.4633169 -12.540396 0.73936844
5.1583838 -9.6662292 0.19124615
6.3896394 -11.973464 0.71126217
5.146174 -9.3197184 0.18582876
6.3504696 -11.500697 0.68850738
8.2643833 -14.966793 1.4957851
5.1400042 -9.0016356 0.18093485
6.2887034 -11.013342 0.66465175
8.0813208 -14.152734 1.4258419
5.1280322 -8.6894512 0.17611717
6.2155557 -10.53226 0.64092207
7.93051 -13.438251 1.3651563
5.1100969 -8.3826036 0.17136292
6.1855302 -10.146745 0.62278616
7.8251395 -12.83636 1.3152555
5.1107512 -8.1198711 0.16747025
6.1485357 -9.7686853 0.60492134
7.718194 -12.262531 1.2676487
5.0888953 -7.8341517 0.16306295
6.0993733 -9.3897419 0.58680153
7.62925 -11.744926 1.2253041
5.094346 -7.6021123 0.15973456
6.063189 -9.0478821 0.57080251
7.4700155 -11.14724 1.1739843
5.0909243 -7.3667865 0.15630503
6.0256605 -8.7193909 0.55546319
7.4381704 -10.763353 1.1446501
5.0572119 -7.0985899 0.15213484
5.9829893 -8.3980637 0.54039335
7.3374753 -10.299297 1.106355
5.0639434 -6.896987 0.14935227
5.9700174 -8.1310415 0.52865565
7.2530351 -9.8784857 1.0721933
5.0711823 -6.7035766 0.14672083
5.9315891 -7.8409452 0.51526171
7.1544118 -9.4573898 1.0374968
5.0412598 -6.4694562 0.1431613
5.9111691 -7.5858121 0.50400424
7.1106005 -9.1250439 1.0120993
5.0419636 -6.2827864 0.14061309
5.8712893 -7.3162084 0.49162486
7.0367503 -8.7684879 0.98362261
5.0447741 -6.1051879 0.13824023
5.8553252 -7.0861173 0.48174593
6.9929209 -8.4628363 0.96046531
5.0250769 -5.9071002 0.13536969
5.8097434 -6.8294954 0.4699049
6.8984904 -8.1093435 0.93145758
5.0228486 -5.736073 0.13308428
5.8229237 -6.6497555 0.46322507
6.8817534 -7.8589349 0.91391557
5.0135589 -5.5627737 0.13071507
5.7836323 -6.4172058 0.45274591
6.8289328 -7.5770144 0.89240652
5.0305085 -5.4234443 0.12911983
5.7609048 -6.2108922 0.44396225
6.7873006 -7.3174601 0.87318933
8.2168293 -8.8586502 1.4835684
4.9963069 -5.2342839 0.12630601
5.7245259 -5.9971886 0.43449894
6.7042298 -7.0235562 0.84948182
8.1579475 -8.5465155 1.4507017
5.0001488 -5.0904074 0.12454844
5.7259436 -5.8293037 0.42822966
6.6686983 -6.7890763 0.83258152
8.0397825 -8.1849108 1.4087113
5.0103049 -4.9568024 0.12302156
5.700491 -5.6396184 0.42024603
6.6373601 -6.5664835 0.81685084
7.9819922 -7.8967566 1.3786393
5.0153875 -4.821764 0.12143932
5.7065711 -5.4862638 0.41486263
6.5999489 -6.3451519 0.80098742
7.8711796 -7.567306 1.3406546
5.0008535 -4.6719217 0.11945598
5.667758 -5.294961 0.40648952
6.5535545 -6.1224937 0.78464097
7.8417125 -7.3259234 1.3176407
4.9858403 -4.52601 0.11753785
5.641407 -5.1211152 0.39930162
6.5204 -5.9190412 0.77044898
7.7770696 -7.0598116 1.2896671
4.9764323 -4.3892093 0.11582314
5.6520071 -4.9850655 0.39496103
6.5298052 -5.7592826 0.76174176
7.6660466 -6.7614465 1.2550787
4.9827008 -4.2695179 0.11453497
5.6162748 -4.812407 0.38761088
6.4888773 -5.5601125 0.74760669
7.6256042 -6.5341372 1.2330192
4.9853439 -4.1495323 0.11321887
5.6230979 -4.6803641 0.38341898
6.4610596 -5.3778386 0.73545778
7.5712771 -6.3019238 1.2095257
4.9682379 -4.0163317 0.1115134
5.5989738 -4.5262194 0.37731788
6.4226851 -5.1921091 0.72255611
7.5159559 -6.075911 1.1866733
4.9725041 -3.9034398 0.11034379
5.593091 -4.3906035 0.37264812
6.386467 -5.0134077 0.71033585
7.4855742 -5.8762121 1.1684769
4.9657588 -3.784544 0.10898087
5.5754023 -4.2491703 0.3673797
6.3813195 -4.8633823 0.70194888
7.4281821 -5.6612258 1.146752
5.5607185 -4.1135135 0.36249533
6.3560233 -4.7018356 0.69169241
7.3874273 -5.4648118 1.1282692
5.5658803 -3.9953606 0.35906705
6.3182173 -4.5354114 0.68044388
7.3526411 -5.2779527 1.1113045
6.3172188 -4.3990746 0.67348623
7.3002515 -5.0836215 1.0922765
6.2812128 -4.2418156 0.66310674
7.2421198 -4.8907332 1.0729947
6.2587323 -4.0974436 0.65447491
7.2107477 -4.7207055 1.0582272
6.2483168 -3.9640439 0.64738625
7.2100821 -4.5742049 1.0484135
6.2093039 -3.8157668 0.63761991
7.1744337 -4.4088621 1.0339477
6.2066536 -3.6928177 0.63185531
7.1224942 -4.2377219 1.0176167
6.1746736 -3.5551331 0.62335539
7.0609064 -4.0653911 1.0004011
6.1750727 -3.438638 0.61836356
7.0799007 -3.9424987 0.99499518
6.1662431 -3.3190064 0.61265939
7.0286674 -3.78321 0.9800843
8.2102728 -4.4192142 1.4767833
6.1480994 -3.1966124 0.60624856
7.0002985 -3.6397007 0.96876484
8.162631 -4.2440381 1.4571382
6.1197238 -3.0714071 0.59905416
6.995296 -3.5108447 0.96101975
8.0969706 -4.0637603 1.4348863
6.1194005 -2.962374 0.59481084
6.9597964 -3.369206 0.94942033
8.0861359 -3.9144616 1.4228915
6.1053796 -2.8484602 0.58942467
6.9456134 -3.2404706 0.94106191
8.0364189 -3.7493854 1.4045556
5.4470391 -2.447005 0.31294933
6.095892 -2.738493 0.58466464
6.896719 -3.098253 0.92833358
7.9887843 -3.5888479 1.3871102
5.4269395 -2.3452172 0.30983421
6.0803494 -2.6275842 0.57950735
6.9162121 -2.9887969 0.92510426
7.9938717 -3.4545007 1.3792669
5.4417562 -2.2597523 0.30880186
6.0971971 -2.5319316 0.57759982
6.8788347 -2.8565159 0.91454214
7.9306674 -3.2933013 1.3600889
4.9334741 -1.9663794 0.092702225
5.445971 -2.1706498 0.30724648
6.0661159 -2.4178264 0.57131851
6.8685069 -2.7376428 0.90786636
7.8815427 -3.1414175 1.3438152
4.9424868 -1.8884537 0.092354201
5.4527621 -2.0834227 0.30591586
6.0564256 -2.3140738 0.56722826
6.8194175 -2.6056023 0.89635634
7.8791218 -3.0105 1.3359185
4.9357944 -1.8053749 0.09173689
5.4458094 -1.9919239 0.30389509
6.0652494 -2.2184978 0.56502277
6.8346457 -2.4999213 0.89356321
7.838614 -2.8671446 1.3219569
4.9256678 -1.7221513 0.091081202
5.4131823 -1.8925998 0.30053189
6.0085011 -2.10074 0.55687803
6.7834802 -2.3716943 0.88234514
7.8267579 -2.7364535 1.3132173
4.9205284 -1.6417087 0.090542376
5.4222584 -1.8091084 0.29956749
6.0152345 -2.0069518 0.55478287
6.7969184 -2.2677565 0.87978083
7.7867651 -2.5980139 1.3001345
4.9310374 -1.5671508 0.090313748
5.4085464 -1.7189096 0.29742017
6.0308404 -1.9166832 0.55363524
6.800045 -2.1611466 0.87609184
7.7863402 -2.4746048 1.294017
4.9012461 -1.4807926 0.08937075
5.4159365 -1.6362939 0.29650822
6.0277047 -1.8211249 0.55089796
6.7461672 -2.0381911 0.86530322
7.7247281 -2.3338394 1.278095
4.9153609 -1.40861 0.089251347
5.4115772 -1.5508121 0.29502413
5.9828253 -1.7145165 0.54449767
6.7702537 -1.9401722 0.8647421
7.7226019 -2.2130895 1.2723718
4.9099569 -1.331322 0.088798121
5.4082799 -1.4664409 0.29366997
5.998621 -1.6265104 0.54376072
6.7459483 -1.8291461 0.85820568
7.7289467 -2.0956836 1.2683451
4.9004569 -1.2537377 0.088292718
5.3934455 -1.3798643 0.29176208
5.9918723 -1.5329665 0.5411045
6.7228422 -1.7199785 0.85204691
7.6712351 -1.9626163 1.254136
4.9229298 -1.1846848 0.088383041
5.3979483 -1.2989962 0.29097009
6.0042276 -1.444895 0.54029727
6.6923771 -1.6104956 0.84517765
7.666853 -1.8449997 1.2489743
4.9151411 -1.108639 0.087949306
5.3865557 -1.2149693 0.2893889
5.9843397 -1.3498031 0.53671408
6.714623 -1.5145228 0.84516281
7.6595712 -1.7276614 1.2436321
4.9186988 -1.0356941 0.087738723
5.3944826 -1.1358765 0.28891173
5.9580503 -1.2545428 0.53269124
6.7066603 -1.412172 0.84153008
7.6208296 -1.6046619 1.2334864
4.9184179 -0.96233511 0.087479047
5.3873062 -1.0540775 0.28768989
5.9472823 -1.1636422 0.5301851
6.7162914 -1.3141061 0.84029245
7.6112332 -1.4892099 1.2283572
4.9246907 -0.89057893 0.087354951
5.377418 -0.9724499 0.28638917
5.9727669 -1.0801126 0.53102434
6.6669307 -1.2056448 0.83187246
7.6185794 -1.3777406 1.2262347
4.9163699 -0.81659019 0.086991109
5.3870239 -0.89476407 0.28618938
5.9576974 -0.98955077 0.5283711
6.6928325 -1.1116539 0.83303374
7.5692797 -1.2572284 1.2152787
4.9127865 -0.74390745 0.086730413
5.4005241 -0.81776202 0.28625542
5.9602919 -0.90252358 0.52740151
6.6579442 -1.008164 0.82681048
7.5793114 -1.1476799 1.2141275
4.9042873 -0.67096895 0.086401969
5.3928041 -0.73780429 0.28525725
5.9580154 -0.81513238 0.52611381
6.6619201 -0.91143548 0.82559961
7.5703011 -1.0357136 1.2101855
4.9153247 -0.6009469 0.086436033
5.3783016 -0.65755039 0.28396317
5.9506998 -0.72753167 0.52449453
6.6701531 -0.81549197 0.8250888
7.5911961 -0.92809856 1.2112781
4.9080758 -0.52888358 0.086166613
5.3863454 -0.58042085 0.28392017
5.9653339 -0.64281142 0.52491963
6.6797304 -0.71979326 0.82491457
7.5810804 -0.81692076 1.2076745
4.9148312 -0.45855603 0.086161159
5.3959031 -0.50344026 0.28401503
5.9450288 -0.55467391 0.52238077
6.6484804 -0.62030631 0.81987488
7.5763679 -0.7068786 1.2051885
4.9153047 -0.38772738 0.086063348
5.388175 -0.42502818 0.28325903
5.9230847 -0.46722272 0.51981169
6.6283054 -0.52285171 0.81638044
7.5214171 -0.59330183 1.1949742
4.9238458 -0.31756529 0.086124487
5.3983746 -0.34817019 0.28350422
5.940546 -0.38313773 0.52080947
6.6472473 -0.42871672 0.81787384
7.5386367 -0.48620722 1.1964817
4.9222388 -0.24677956 0.086025782
5.3823853 -0.2698493 0.28243273
5.9275565 -0.29718181 0.51924461
6.6405406 -0.3329277 0.81637871
7.5202994 -0.37703496 1.1925926
4.9207802 -0.17614664 0.085947424
5.40485 -0.19347464 0.28343719
5.9416161 -0.21268897 0.5201562
6.6393242 -0.23766448 0.81572741
7.5250049 -0.26936874 1.1926053
4.9284658 -0.10582414 0.08604639
5.3978128 -0.11590196 0.28295216
5.9255695 -0.12723397 0.51853889
6.6354089 -0.14247565 0.81491232
7.5070825 -0.16119224 1.1892773
4.9200907 -0.035209958 0.085882574
5.3909173 -0.038579363 0.28253281
5.9401369 -0.042509783 0.5197072
6.6270685 -0.04742571 0.8137213
7.5380611 -0.053945106 1.1939404
4.9250326 0.035245325 0.085968837
5.3963947 0.038618561 0.28281987
5.9533825 0.042604569 0.52086604
6.6291027 0.047440268 0.81397104
7.5285764 0.053877231 1.1924381
4.9153366 0.10554223 0.085817173
5.3914948 0.1157663 0.28262097
5.9317579 0.12736686 0.51908046
6.6202455 0.14215007 0.81305009
7.5215058 0.16150194 1.1915623
4.9183125 0.17605831 0.085904323
5.3771758 0.19248399 0.28198591
5.9351187 0.21245639 0.5195874
6.639667 0.23767674 0.81576955
7.5243907 0.26934674 1.192508
4.9231744 0.24682648 0.086042136
5.3841901 0.26993978 0.28252745
5.9488273 0.29824823 0.52110785
