# .PCD v0.7 - Point Cloud Data file format
VERSION 0.7
FIELDS x y z
SIZE 4 4 4
TYPE F F F
COUNT 1 1 1
WIDTH 115
HEIGHT 1
VIEWPOINT 0 0 0 1 0 0 0
POINTS 115
DATA ascii
-0.60155416 -0.65792644 0.23887068
-0.59074897 -0.66497433 0.23833515
-0.59887183 -0.69386929 0.24559404
-0.56521428 -0.6741429 0.20310281
-0.59872949 -0.71411717 0.24970186
-0.58536017 -0.71882153 0.21401721
-0.57596129 -0.72832543 0.21437037
-0.58492655 -0.76182365 0.22174303
-0.5865308 -0.78697938 0.22659826
-0.59698313 -0.82540065 0.23517661
-0.60795206 -0.86641479 0.24435812
-0.56777471 -0.83430207 0.19616286
-0.59987491 -0.88147086 0.2461576
-0.56520092 -0.85662711 0.19948941
-0.60815632 -0.92173094 0.25494355
-0.56591219 -0.88500422 0.20419054
-0.58042896 -0.936988 0.2142456
-0.58878851 -0.9815914 0.22249453
-0.54487205 0.97029465 0.1366363
-0.54484892 0.93853247 0.13324812
-0.55239463 0.95153034 0.1742622
-0.53932881 0.89913529 0.12873752
-0.54710376 0.91209716 0.16845734
-0.54000795 0.87173635 0.12590834
-0.54574329 0.8809948 0.16413888
-0.53976125 0.84410799 0.12302116
-0.54800832 0.85700524 0.16111426
-0.54480004 0.8257072 0.15668029
-0.55143046 0.81028539 0.15523575
-0.56759644 0.83404005 0.19610126
-0.54666954 0.77907884 0.15074077
-0.56726885 0.80843568 0.19197053
-0.54483783 0.75330359 0.14724745
-0.55554408 0.76810616 0.18426326
-0.53684974 0.72031969 0.14228757
-0.54867679 0.73618871 0.17847219
-0.55181509 0.71869838 0.1761288
-0.55043191 0.69604254 0.17248973
-0.57744014 0.68872494 0.20749602
-0.5969907 -0.65293533 0.23705858
-0.59462917 -0.6693421 0.2399006
-0.5656904 -0.67471075 0.20327388
-0.5785051 -0.71040356 0.2115109
-0.58452022 -0.73914856 0.21755597
-0.58791965 -0.76572192 0.2228777
-0.5916214 -0.79380971 0.22856496
-0.59169227 -0.81808537 0.23309232
-0.59064156 -0.84174496 0.2374004
-0.56218815 -0.82609296 0.19423273
-0.59819126 -0.87899691 0.24546672
-0.56539565 -0.85692221 0.19955814
-0.60496134 -0.91688854 0.25360417
-0.57524073 -0.89959276 0.20755646
-0.58069146 -0.93741179 0.2143425
-0.58625245 -0.97736341 0.22153619
-0.54185683 0.96492517 0.13588017
-0.54107583 0.93203312 0.13232538
-0.54652923 0.94142693 0.17241187
-0.53941667 0.89928168 0.12875849
-0.54784626 0.91333503 0.16868597
-0.54497457 0.87975389 0.12706636
-0.55312902 0.89291769 0.16636024
-0.53947043 0.8436532 0.12295487
-0.55266601 0.86428916 0.16248362
-0.54024947 0.81881028 0.15537158
-0.5716328 0.86637533 0.20175955
-0.54663652 0.80324113 0.15388618
-0.54840124 0.78154677 0.1512183
-0.5625999 0.80178177 0.1903905
-0.53798246 0.74382514 0.14539471
-0.56147736 0.77630973 0.18623123
-0.54912603 0.73679143 0.1455413
-0.55663466 0.74686617 0.1810607
-0.55226374 0.71928275 0.14362949
-0.55485839 0.72266209 0.17710018
-0.54995733 0.69544244 0.17234102
-0.56860065 0.67818195 0.20431966
-0.59090471 -0.64627904 0.23464191
-0.6055879 -0.68167776 0.24432187
-0.60502583 -0.70099956 0.24811776
-0.57466364 -0.6854133 0.20649831
-0.57733804 -0.70897043 0.2110842
-0.58003819 -0.73348081 0.21588777
-0.58653432 -0.76391762 0.22235253
-0.5842104 -0.78386599 0.22570182
-0.5892725 -0.81473976 0.23213907
-0.59492332 -0.8478471 0.23912141
-0.56500584 -0.8302334 0.19520622
-0.6017012 -0.88415444 0.24690701
-0.56907558 -0.86249965 0.20085698
-0.61107188 -0.92614985 0.25616577
-0.57259214 -0.89545071 0.20660079
-0.57387429 -0.92640686 0.21182619
-0.58071709 -0.96813524 0.21944447
-0.5464409 0.97308838 0.13702972
-0.54556334 0.93976307 0.13342284
-0.5485695 0.94494134 0.1730555
-0.54296625 0.90519935 0.12960577
-0.54948878 0.91607338 0.16919172
-0.54262841 0.87596649 0.12651932
-0.55044609 0.88858664 0.16555332
-0.54433495 0.8512606 0.12406358
-0.54959512 0.8594867 0.16158077
-0.55139893 0.83570856 0.15857807
-0.57567745 0.87250543 0.20318712
-0.54803461 0.80529547 0.15427977
-0.57254153 0.84130651 0.19780977
-0.55746549 0.79446459 0.15371771
-0.55934477 0.7971428 0.18928893
-0.5487026 0.75864702 0.14829193
-0.56350303 0.77911037 0.18690309
-0.544743 0.73091048 0.1443796
-0.54720014 0.73420739 0.17799187
-0.54793411 0.71364373 0.17489009
-0.56943345 0.6791752 0.2046189
